x,y,z
1.5073934,3.119884,1.8648261
2.299094,1.8150344,1.7602854
2.1617599,2.7184246,4.2173233
1.219013,1.4695872,1.6837269
2.2507293,0.7337644,2.8736706
2.4355578,0.9816438,2.2676506
0.72830296,3.3015907,3.4358983
2.7749832,3.1992183,2.657263
0.53447413,2.1791496,1.1600612
1.2160213,0.6110704,2.268841
1.7238042,1.1504266,2.223051
0.9935832,2.5625257,0.92044294
1.6509781,2.0301101,1.8057139
1.8867202,1.6493807,1.8873988
3.6951957,2.5506482,0.75019634
1.2731297,1.328784,2.9783635
2.809385,0.18900967,1.8958247
1.9483968,2.588868,1.6535463
0.3225119,1.0150824,2.5364008
2.4987197,1.766846,0.40185225
3.4657278,1.2880571,3.4845324
3.4499886,2.2997503,3.6796923
1.3248625,0.47907174,1.8098675
1.1906939,1.1805322,2.068798
-0.81509185,2.7493372,3.032197
2.0077863,2.7673883,1.2859774
1.4245368,2.98777,2.7114503
0.18697202,3.297861,0.8789656
0.6405798,3.1209936,2.0675578
3.981788,0.3708055,2.0773323
1.4928473,1.423497,0.58274233
2.7074313,4.6019516,2.526439
1.8686498,3.588046,3.1683078
-0.18195128,2.919582,2.8477795
0.5486063,0.768389,2.0241477
1.8968585,0.6352005,1.7872659
2.008539,2.3573742,2.2316673
1.4056683,2.2160757,3.1099622
2.605272,2.736363,1.6403921
1.9530264,0.6874453,2.6821268
0.5931339,2.4532213,1.3320609
2.020007,3.5156965,1.1803828
3.645002,3.6016948,3.3179007
1.3906689,3.089525,3.6967745
0.26732647,2.8827558,0.5163655
2.4789627,0.6913744,2.0631914
1.5606055,3.4163656,-0.2804742
3.3347368,3.4923587,3.0521054
2.1115255,0.4626814,2.2229285
3.243122,4.316231,3.8029275
3.0993524,2.7853465,3.263627
1.5810887,0.6414393,1.192491
2.6896682,2.2903,1.3529298
2.415691,1.5729339,1.7305347
2.8986633,3.6147413,2.0029325
2.9576058,2.1047885,2.441413
1.092205,1.0160624,1.7789888
1.0440133,0.866135,0.47343218
2.5029418,3.8690453,3.054876
2.4033532,1.8830024,0.41842043
2.5230453,2.283168,2.4147062
1.1408625,0.14260817,0.9175607
0.15037572,2.9849916,3.2386067
3.1560974,0.36789238,3.2176929
0.9964986,2.507219,1.8957877
1.805362,3.3435314,2.3224287
2.1815653,2.2368968,1.8049153
2.4933965,2.917451,1.726137
-0.4126947,2.557516,1.145493
1.9290533,2.716183,3.194999
2.9531298,3.2193484,3.0884042
3.1920981,0.5176859,1.5664284
1.8372002,2.6431417,2.1122622
3.5343509,2.8904743,3.4705853
1.5558636,2.4100857,1.7472311
2.9668179,0.76601446,0.60994613
2.6960835,3.4396064,0.1947037
1.5880628,2.5721745,1.678079
2.1130342,1.3016155,1.6752828
2.818438,0.710711,1.9310372
-0.14156008,1.6921706,1.6170849
2.8762176,1.6234934,3.085493
2.2752223,1.3495917,0.85398173
1.4975657,2.1127384,0.8966925
1.3904896,1.2986008,2.9645739
2.0122356,2.6068788,3.2611818
2.9813266,3.4064538,2.7961645
2.0604372,3.4906669,1.153728
2.7870746,2.0433586,3.9437897
1.8049436,2.896941,2.4048123
1.8260947,1.4108897,1.9236072
3.3861976,2.4216847,2.1529803
2.9196217,1.8215661,1.5811443
-0.14171648,2.0318367,0.9919946
1.8886406,1.6672853,2.9666414
2.338615,1.019083,2.4332845
2.1209702,2.5018375,1.1429034
3.965853,2.7074573,3.0257244
1.8243475,0.92746544,3.4590495
2.5968442,0.42465174,0.8522227
0.56278765,1.349549,2.678084
1.2231933,0.66527784,2.1386614
2.3864346,-1.634628,2.1642592
3.0928025,1.360745,1.680771
1.7509528,1.6245424,3.9691052
3.5859938,3.0824704,1.5958874
2.233391,1.412149,2.4681463
1.5666894,2.0689108,2.232006
0.87885416,3.0346117,1.2647399
2.2738693,2.1007173,1.8004799
2.9557393,1.505241,1.0018883
1.8923972,0.7249882,1.5246812
1.7903148,2.3289635,1.5881714
1.6082151,3.3028162,1.9250646
1.392802,2.0783353,2.5105247
3.1932683,0.9960053,0.8162856
-0.006292343,2.0593262,0.97152984
2.901807,2.5671577,1.4937431
1.4787749,4.1963496,0.931201
2.997506,1.9787135,3.1630738
3.2244847,2.194738,1.3484676
2.4381185,2.6989138,3.5121727
1.8354406,3.1273499,1.4599104
1.540426,2.7887893,2.9948506
0.8484994,1.800037,-0.58878136
2.8352804,1.9010216,1.7541112
1.8322546,2.6659455,1.0737134
1.2735188,3.4517531,1.5230668
3.8306708,0.9952228,2.6467445
3.0728955,2.6970012,3.310531
1.5638133,2.3560436,1.4023907
2.791204,0.5664301,2.9082882
2.2515883,-0.0864439,1.2533817
0.81717813,3.122452,3.3557122
2.779654,1.3039292,2.2687833
2.5054708,1.5053163,1.9894929
4.1302066,1.8598233,3.2405615
3.6880846,1.5765796,4.571903
2.3199284,2.1584835,0.9702207
2.133707,1.6465267,2.5492887
2.6969237,2.6724331,2.3487766
2.3391001,2.928004,2.612064
-0.32388878,3.2202191,4.875593
2.6063733,1.8511517,1.0885191
0.4518609,0.8909664,1.8865345
2.7996616,1.0374417,2.3271155
1.2960887,1.6571951,2.0179775
2.262084,1.9147047,1.8801253
3.613667,1.2346354,1.2635336
1.7308533,2.062535,2.4197733
1.8946778,2.6637971,3.7450485
1.3883375,1.6410158,3.0519729
2.7239656,0.4592291,3.081839
2.6332722,2.1980672,0.7074435
0.8748623,3.1512766,1.8079227
2.5194552,0.5500754,1.5953314
1.4017005,1.7544597,3.9908552
1.989742,3.649681,3.6518822
1.0401673,1.6780382,3.475253
3.1377666,2.0704474,2.5165887
2.2849069,2.1551855,0.69159985
2.8709602,3.470009,2.6296062
1.8746325,1.3182894,1.5444375
1.4672348,0.49864054,1.4583241
2.4132214,2.0698023,3.2699633
1.1830308,1.7204379,1.1009281
3.1223454,1.2373177,2.3043208
2.439414,3.7523155,1.1657022
3.142154,1.5021536,1.7777021
2.1250086,0.88117933,2.331445
2.469403,1.1778626,1.7629108
1.9349253,3.0979178,2.233655
0.82256424,2.571255,1.4603194
0.7824516,1.4289584,1.1367188
2.1983328,2.2411964,0.58116186
3.0243027,1.7942774,0.20976365
3.2930102,2.064277,0.41037285
1.4027936,1.588713,-0.10035443
2.4416416,3.7583098,1.2359496
2.8683841,4.111643,0.89626324
3.0612822,1.8582323,2.5919635
4.2116365,-0.5061183,1.1233974
1.5571434,3.512386,2.7541337
2.1477408,1.317884,1.9931114
2.4547014,0.1936518,1.8142289
1.8779758,2.8879533,1.2620327
2.2875123,2.3239245,3.3065472
3.022962,3.1424336,1.0211532
0.4700408,2.6784434,1.9669096
2.1883154,4.0645404,2.068667
2.2094378,3.2473092,1.9932768
1.7681376,2.644127,1.2032386
0.24036717,2.414493,0.37678683
0.9076209,1.281455,3.6962636
1.686119,2.1348689,3.8793068
2.385288,2.7684834,1.721491
2.5189922,2.864271,0.7806016
2.5026863,2.7538738,1.8476417
0.23579764,3.1693742,3.0852299
1.5066016,2.1717517,3.52555
1.8339151,2.4211588,2.629781
1.3382115,2.9788952,1.7640352
0.50753593,1.572005,4.283643
2.5363157,2.5617642,1.4660509
3.7712,2.7853303,2.9402108
2.034288,0.43662775,0.44469202
0.033145547,1.8903854,2.3456888
1.9948052,0.66586936,1.9476951
1.4013765,3.236928,3.795988
1.8850535,2.2725956,2.607585
0.8122666,2.1689498,0.37581742
2.280516,0.18268967,3.1946297
2.6627774,2.125506,2.1232786
3.6840892,1.6084878,3.881616
2.3880541,1.5884504,3.2618868
3.4715815,2.7833922,2.7172015
3.1642032,0.7687379,2.8418722
3.0381932,2.3584268,1.2358401
2.6765275,1.2627517,1.7904092
0.8652196,2.8978558,1.6805601
1.0968925,-0.25953126,1.7359793
4.3226566,2.948392,3.82824
4.7164764,3.4691193,1.2114813
-0.12792635,2.1831644,1.5704718
1.2934289,1.6724237,1.9189833
3.5264044,1.4007092,-0.018187284
1.5620854,1.6019533,0.4496771
2.4340765,3.7022545,0.95421946
1.3683853,2.1438088,1.8506651
1.8096786,2.1362684,2.0767562
3.5115404,1.6340415,2.941206
2.6623716,2.4795408,3.503571
0.5621078,1.7228163,3.479679
1.385793,2.4545386,3.6723912
2.9005938,1.2031518,2.048158
3.4812913,0.60806906,2.3195002
2.1228929,1.831368,2.0111516
0.4862362,4.502269,1.7045372
1.8863249,0.8358357,3.5848672
2.0497983,1.2216825,-0.13485813
1.6852754,3.763549,1.1798027
2.5143502,3.4459758,0.5376785
0.86614347,0.8665061,1.741395
2.4853263,1.1436182,1.9655403
1.0753257,3.2439392,1.2141786
2.1703544,2.1192815,1.1449987
1.6329451,3.2313752,0.47104883
2.2457676,2.3093696,2.606135
3.2160535,1.4459708,0.6503421
1.6406447,1.3466902,3.0648546
1.8090318,0.827427,1.0203099
3.073049,2.947727,0.99768436
4.292612,2.031608,1.6235045
2.3241546,3.1818132,1.6279528
2.223884,3.1901283,2.6339402
1.8751587,0.59096456,0.91786873
2.1605968,1.3263224,1.6411014
2.5430126,2.2666185,1.3822331
2.0652592,2.6374834,2.4933803
1.8763143,3.6284356,2.7940664
2.049256,1.4627695,1.40415
2.1990318,3.119464,0.70984936
2.1651912,3.0442302,3.6358504
1.219523,3.2269034,3.0561266
4.468763,2.1900306,0.7005335
2.7268124,1.6292869,2.1631036
0.7116009,1.8632118,1.1273009
2.238699,1.4277608,0.7441267
3.2453625,0.6444653,1.7569534
3.9268818,2.1758103,0.589612
2.521327,3.7140465,0.67618144
1.7965764,1.8782371,1.7990494
0.7145952,2.3067684,2.3344495
1.6909387,2.9369907,2.8685586
2.8352046,2.558749,2.7413657
2.3547537,0.14813244,4.3026037
2.0973735,0.08466303,2.7477853
1.0855173,0.6033983,0.24480975
1.9289615,1.5934713,1.0002394
3.7849736,2.869318,2.207018
1.6956474,3.1831598,2.8300264
2.0003116,2.19421,1.6176736
1.2734954,1.5932899,2.795473
2.9045093,2.938654,3.8397226
0.9970896,2.8675923,0.31167936
3.5148125,2.6835246,2.333951
2.4600542,1.9848249,1.0203917
3.0928998,3.9628243,1.7377211
2.6820743,1.5748869,3.4323552
3.203877,2.7636962,1.4173217
1.188755,1.6881241,2.2463121
3.4988337,1.5978829,2.9687476
2.366548,1.5415881,2.8736143
2.4377682,3.1777852,2.2961092
1.8621134,2.2935472,2.4028423
2.7279477,0.31153023,2.889255
1.6804054,1.4569291,2.330129
2.5396,2.2421598,1.0891545
0.53157794,2.064785,0.0093051195
3.4945703,3.063425,1.8938287
3.2700179,3.3768048,2.2850494
2.0449133,1.4448795,0.72050154
2.6515312,2.67296,1.074849
1.6294096,1.2546799,2.6383724
1.2358367,1.2887025,1.4183714
2.3725128,1.9060603,0.3170972
2.9270387,1.8696353,2.1443262
2.487031,2.1866078,3.662343
2.9123335,1.4521728,2.1224186
2.1066797,1.4249638,2.2974582
2.4901314,0.7405193,0.5590149
1.9721483,1.9868587,2.276314
2.9543495,2.2472215,2.5696585
2.919828,0.30292213,1.6522049
1.5010296,2.2186081,2.4031272
1.0562975,2.492931,1.3654623
3.0124633,1.4058278,1.6072264
0.7632952,0.7829281,1.966346
2.6888573,3.276372,1.536129
0.18268836,3.0735044,0.92773676
1.3155282,2.5465868,1.2378807
2.7967317,2.5290613,2.280125
1.2966624,0.9770744,1.239742
1.9822749,2.1043873,0.69088495
3.3588924,1.8861217,2.143206
2.5726259,2.2784984,1.107584
1.6355491,2.3402822,1.693388
1.5241647,2.1299534,3.0852046
0.48002636,1.9408057,2.982825
1.8727522,2.290503,0.672055
1.260472,2.4237146,1.6295623
1.8876243,2.6959305,2.039042
3.4374552,3.5219693,1.3058383
1.9919348,1.4094706,1.5393233
2.3870213,3.0598142,3.10889
2.7351267,0.5885531,0.95476234
3.1826,2.8360887,1.3791046
1.2263246,1.1919861,2.8697567
2.1390915,0.6112087,3.2899666
1.1308577,0.69368327,2.339447
4.143179,1.2517663,1.9109312
0.7281544,0.28469408,0.97877467
2.1210282,1.6995912,1.7588776
0.6206411,1.6800876,0.6554955
1.7640512,2.8578503,0.28686917
1.7587384,3.4017777,1.6027881
3.37491,3.3486302,0.6131364
1.182339,1.2976899,2.397921
3.1519957,1.9286691,2.021411
3.3145747,0.8398737,0.42227113
0.6736045,3.4432015,1.3138804
3.14611,2.7803884,2.3098164
0.7662556,3.3274896,3.832723
2.340396,0.17843163,2.4724922
3.0392518,1.6591561,1.6769526
2.921752,2.6278825,2.6894438
2.708191,1.17501,3.573662
2.512323,1.4072756,1.5935978
2.0554593,1.1808674,3.2376022
3.8897498,2.6796107,2.565486
3.2195497,1.9457685,2.8567536
1.9194149,1.232986,1.0435724
1.9547181,1.8346646,2.2223907
0.95954883,1.433573,1.2036737
2.7689264,2.1377726,2.1383605
3.735457,1.6732286,2.3815584
0.73544264,1.7243195,3.2755938
2.2846122,3.7574034,2.672356
1.8225874,1.817615,3.5831633
0.40707886,3.7024581,1.5586454
1.7908155,3.2713082,2.8416877
2.2946267,5.5231004,1.9544338
1.8102779,2.3907003,1.2456944
0.6718643,1.1718091,2.7708983
1.7166935,3.7151816,1.8888702
2.726,2.7699428,3.7624936
0.5666369,0.8672329,2.1391497
1.2408113,1.072181,1.3262868
1.2205259,2.2345788,2.3309145
1.4195035,0.046016335,1.2609062
1.8330681,2.5345569,2.8459163
1.0669394,2.2826684,-0.25983357
2.4772034,0.6311735,2.8854349
2.8112783,2.9502485,2.6748214
2.1148684,0.44082594,3.342588
2.382496,2.133754,1.2191002
0.66164565,2.1659,2.1148727
3.3678029,2.1386242,1.3851006
3.2702937,3.2127726,1.3738662
1.6039505,0.5628314,1.5604864
2.6632774,2.012621,2.3333118
1.9215907,1.9146831,1.7062722
0.37989664,1.1607217,1.023274
2.6195226,1.7489843,2.0434492
2.6217442,1.4565184,1.7425002
2.0949438,1.5466133,2.8316689
0.5551572,2.6721108,3.5531108
1.9744196,0.4192587,1.9311498
1.4603989,2.1731608,1.5794318
0.8514025,1.6972455,3.069787
2.6745565,0.09422588,2.86818
1.7397398,1.9201164,2.5756161
1.772148,2.955128,1.2112335
0.54138577,2.249146,1.3268955
1.9985865,1.4267981,0.88201416
0.7468407,2.451981,0.72472835
3.1667008,1.4485061,1.3528392
0.26055717,1.6177721,2.6920083
2.3374262,2.1984043,2.4951584
2.295981,2.260942,2.2296555
3.7563972,1.6550592,4.6499777
2.8171706,3.6112533,0.43792284
2.0407152,0.026349068,1.651921
1.2239206,2.460603,0.49543858
0.76549435,1.7375401,1.1091816
2.8554575,4.2270927,1.6958902
1.7042396,2.74162,2.440107
2.0587888,4.034113,0.5248107
1.6575942,0.8861759,0.7680299
4.184778,-0.6603515,2.9017022
1.9906857,2.3910298,2.9021997
1.2158208,0.951658,2.417086
3.1552253,2.2802,1.2292337
2.8933551,0.24890697,1.8152006
1.8993086,2.222021,3.6391804
1.6841292,3.3459663,2.1891358
1.298554,2.177577,2.6410348
1.7584074,1.7333385,3.3326776
3.0261145,2.105793,1.487953
2.5690203,1.2390636,1.520468
1.1735837,3.0983653,-0.39335775
0.10876739,2.1784174,2.5137963
2.1741855,1.3611484,1.1434466
1.6321328,1.460777,3.241811
1.7105297,2.4840727,4.3404455
2.81185,2.613251,1.6847752
1.2866035,2.1385586,2.994697
2.1330018,2.2694347,2.970642
0.8396286,0.9934608,3.5611782
2.6453512,0.4140253,1.3443778
1.6784117,2.0644631,2.745862
-0.2580459,2.3933434,3.3139143
3.2966042,3.1954315,2.1995878
2.599683,1.5875204,1.713518
0.63586116,1.0622687,2.9006689
2.0940304,1.3146904,2.7556033
1.1935017,2.5851018,1.7452643
1.8715413,-1.3579476,2.396893
-0.04686165,1.6815013,2.6333842
2.3961153,1.2193044,2.328127
0.5423796,2.1137104,2.0058577
1.6475167,3.1217525,1.2953379
4.919975,2.690295,2.5141916
2.3368194,3.6534343,1.9226018
2.2368968,1.2035279,2.521663
0.21707964,2.020543,-0.12946296
1.5624307,0.80679846,0.73868847
2.143696,2.406031,2.3476987
1.9217633,2.0021884,3.2041843
4.292041,0.77637875,0.9888655
1.8420403,2.7472544,2.4705517
0.8809004,0.8627676,1.6655725
0.79195225,0.7838869,2.9383225
2.6928504,2.4614367,2.465166
1.8553442,2.4810805,0.75819695
1.0957954,2.8588903,1.2279685
3.2989516,2.034939,1.7375125
1.8862258,2.5704625,1.3461126
1.4842782,3.126411,2.8289652
2.0116742,3.3040433,1.606902
0.64987946,-0.19253755,0.98739636
2.164602,1.2068007,0.13282204
2.1483655,2.713624,0.73076355
1.3050605,1.2289002,2.7060306
0.30334222,2.8443403,2.150295
2.2572968,0.9008565,3.2965422
2.3494189,2.9584987,1.0424296
0.52437925,2.5615265,1.7017839
1.6273742,1.6390458,2.393324
2.0164535,2.1378202,2.7313135
2.9293616,0.21682084,1.8424177
1.9083772,2.0095732,2.7168176
2.1576228,2.7862659,0.59473217
1.2110941,0.21167934,1.7411627
0.32186174,3.2223442,1.8970032
3.1116319,4.190066,1.9116553
1.875547,3.4057813,3.217733
2.21206,1.1271648,1.8714427
3.1996465,0.4646865,2.2455165
0.39140165,3.402798,1.692669
2.8337314,1.4342098,1.4078751
1.4918696,3.2145536,0.85435474
0.59430194,1.996038,2.2116504
2.1385465,2.0794346,1.765337
2.3367312,1.5361669,0.80452657
2.981853,1.8957239,1.2930951
1.5682034,1.1630851,1.9841602
1.7882961,1.2642739,0.95026636
1.8549279,-0.003909111,1.6171168
2.0814795,1.9779656,2.3327067
3.6382904,1.9507079,4.244172
1.8898203,0.80818534,1.862788
1.2050669,1.6080792,3.0098376
1.6721984,3.040956,2.18478
2.9719443,0.5541973,1.8187747
1.0551898,2.4707015,2.7370045
1.4381127,3.429202,0.7970848
0.82235634,2.3789806,1.5736939
2.8457882,4.1144447,0.6055578
1.471339,2.90657,2.6499178
3.768377,1.4300492,0.91876054
1.8462254,1.258405,2.9951472
1.2036104,2.4841506,1.776621
1.5723515,0.8036957,2.612587
2.0842197,3.962769,0.7613907
4.21993,3.240337,0.7002177
1.3321409,3.2273006,2.9164388
2.889457,2.0031455,0.65234387
2.75087,1.8905338,2.7664864
2.0890343,2.89758,2.3910284
1.5395072,0.69538534,2.317651
2.8014288,2.6106899,2.7020242
3.4571824,2.0804574,1.8292111
2.0703807,1.6018045,0.11969268
1.2232127,0.8833703,2.9076972
1.8180279,0.06445205,2.210256
1.9250102,2.524988,3.0352554
0.92988145,1.7938776,1.1049445
3.056991,2.9164486,0.8270918
2.1603143,1.6099653,1.25576
0.61732316,2.168808,4.1105256
2.0974567,2.9376326,1.7951193
1.9558665,0.14432013,1.6200266
1.9411674,1.2347184,1.6407914
1.2498055,3.2398705,0.9597051
1.8500173,-0.4486816,0.846722
2.2184646,1.2156568,1.8465742
1.918455,0.906968,1.4562397
3.057343,-0.22387648,1.255761
1.7869558,1.1292888,1.7609694
2.934066,1.827669,1.7298065
1.451633,4.465559,0.14139128
2.6182745,3.2482905,2.3855355
2.849381,2.286345,3.0383904
0.9129783,1.7696953,0.93029475
2.190234,3.3250937,1.1646283
1.0077752,1.787217,2.5431194
1.6940348,3.9950078,1.3206431
1.9598109,0.23003304,0.11217451
1.6899513,0.46066284,2.1664228
2.3928676,3.1234894,1.6136788
1.2634959,0.55586207,2.8078182
2.9320495,2.6882648,2.4406722
3.012299,2.8270783,2.6515405
0.32179284,2.0734932,2.0236726
3.630991,0.9706861,1.5928136
1.4003148,2.1304374,2.158661
1.9875621,2.0586123,2.6767583
2.090859,2.2281098,2.7882242
2.1692295,1.9392272,3.4053943
3.3333583,2.45788,0.69798553
0.472466,2.5327473,-0.076423645
2.767552,1.0121106,1.1699743
1.6746198,0.89042497,0.15634155
1.8951017,3.0955982,2.5521083
0.4384712,1.4689307,2.3468149
1.9269596,2.2853396,2.8936682
0.57983136,2.2229364,1.7870017
1.1457151,1.8400298,1.7751482
1.31954,1.6295125,2.336368
1.310466,1.2561047,2.3261428
3.2188876,0.32563674,2.7111568
0.5940708,1.6988431,2.8459308
1.6710883,1.9353527,2.0376208
1.2520348,1.5499775,2.4846573
2.6965072,2.0842543,0.80566156
1.9207194,3.9614944,2.4670565
1.887686,0.7483816,2.814883
1.4310877,3.5127916,1.3856001
2.4515584,3.2854466,1.5080916
2.3988688,2.5915987,1.8372775
2.7753792,0.33495736,2.0368598
1.621202,1.4732454,2.5712814
0.9975153,1.7287583,1.4478179
4.777899,3.9874153,0.5900073
-0.17933798,3.0975556,2.2276418
1.9963753,3.0152085,2.6759248
0.1165297,1.4335043,1.8392403
0.24400353,1.5093693,0.8212148
1.922558,0.7782353,2.4139786
2.0333142,2.0241985,2.2142665
2.5626369,3.5766497,0.5689267
0.43888748,3.3316078,3.3699234
1.9334297,2.6201797,2.7656765
2.9312701,3.765695,2.7347596
1.1228187,2.89785,1.4041021
3.1550179,3.3630385,1.5464195
1.5551087,3.5795062,1.5952823
1.9343385,1.5555844,0.4086728
2.6342957,2.543676,2.0166209
1.7789282,0.95143163,3.2186794
2.423727,1.1088269,0.56681
1.1386318,3.3344262,0.20225465
2.3741434,2.4100823,2.4686017
2.6399314,2.6222396,2.700615
-0.8498235,-0.19990516,1.8871248
2.8127813,1.0460654,2.7231283
3.8189895,0.6286472,1.452684
2.8907502,1.8680246,0.85009015
1.2230508,1.0345776,2.001925
2.3131015,2.0323286,2.6658154
1.3284526,3.1365917,2.4384983
0.9890673,0.18178892,1.5562677
2.0789518,0.77963233,0.7100061
3.084836,1.0955309,2.9317052
0.29765987,3.8032198,2.2717667
3.6115055,1.1572958,2.1108074
2.5564392,0.24398744,1.8539137
2.0563374,1.3146695,2.059414
2.8500667,1.9440575,0.8575468
-0.20928574,1.3572745,3.0146723
1.0116234,3.1178803,1.5142884
1.093014,2.152526,2.7298675
2.0356338,1.4846241,3.144545
1.672185,2.6996372,0.65910983
3.0305233,2.7191124,2.0067406
2.3980546,0.5309427,2.6851966
2.939214,3.3459883,2.6899054
3.450887,0.58739567,2.1148868
2.3551753,2.1117284,0.43097818
1.9711415,1.6512768,3.5725698
2.743163,-0.20023227,3.574136
1.8136749,1.9235154,-0.85814047
3.3877072,1.9584649,1.4375625
3.4455001,2.553064,0.42600536
1.5247796,3.3065162,1.5356069
2.9168873,2.3599577,2.7322645
2.4905427,2.236014,2.1064305
2.359616,1.8016893,2.3452413
3.3526053,1.1416949,1.139735
2.9127173,3.643908,1.9173297
2.6322076,1.9356502,2.7599928
5.6144457,-1.6263173,0.8619212
1.5529339,2.4923081,1.7487947
2.9310896,1.290644,1.9379842
1.8883168,2.5304604,1.479392
3.7076583,1.5459633,0.79744697
0.8894967,1.4101348,3.0307243
2.9412534,2.3025358,4.75846
1.5605931,2.4173212,2.3563285
0.14811087,2.3075557,2.4469688
2.4362066,3.7147474,1.309576
2.9532175,2.4525385,1.5108485
1.8618062,2.6030264,3.1695416
2.59691,2.1432977,3.0144928
3.3973942,3.007602,1.5104355
1.1126261,-0.27832007,3.1966887
3.5120435,0.36098993,1.5251215
2.407293,1.7907264,1.8255944
3.7726882,1.6012731,3.0943284
2.1516612,1.9614416,0.15594935
2.2427907,3.2963526,3.2835736
2.8248563,0.65799654,1.3575395
2.6057563,2.45466,1.7621994
2.4393508,0.6185739,1.7797513
3.0191114,2.7652767,3.1405048
-1.1124067,1.6685091,2.138962
1.9585637,0.76774085,2.8403013
3.2113428,3.880855,1.4791896
1.546753,1.9392016,1.522691
2.6641088,3.4671965,1.9879177
2.689515,1.5579685,3.2960865
0.35988212,4.069756,3.173725
3.7638626,1.4432604,1.4080672
0.6556492,1.6723516,2.2906213
2.93163,2.4087462,3.2538078
1.514967,1.588273,1.4673326
1.8492131,2.3103364,1.5180098
1.2369756,2.9831407,2.6184707
1.9292159,3.1547785,1.9566133
1.8333442,0.61575854,2.1727114
1.6121445,2.4732747,1.3824738
2.9165642,1.5682361,1.2561038
0.84485066,2.0678384,2.5292606
2.6225362,1.2642124,2.2404583
1.5074096,0.5698787,1.3536899
1.5075432,1.166719,1.6177803
5.50931,0.64093006,2.4091663
2.4709835,3.8414478,1.819659
1.1146858,0.7920704,2.7027736
2.2453856,0.9682896,1.6233838
1.5605614,1.6253315,1.7558831
2.1752834,4.05408,2.7567973
1.2138853,1.5446858,4.146452
0.9581301,2.2549503,0.42519104
1.2324239,0.8292701,3.2071743
3.1207476,1.864408,1.493778
3.8871753,2.073283,1.4723873
2.6204326,0.2942859,3.7124195
4.246068,2.8875544,1.8890401
1.6807917,1.320418,2.3114977
0.05047548,1.4851516,2.3759053
2.0165482,2.848066,3.361916
2.7802258,1.8132145,1.8499086
3.4939885,1.5627319,3.7271595
1.823853,1.0912141,1.8546461
2.2410538,0.97890544,2.88045
1.2372336,2.6061404,1.2304162
2.679139,1.2120428,2.6428456
-0.07184863,2.0267122,3.2917647
2.6302063,1.8775998,0.51316047
1.0132647,1.6145704,1.5849476
2.2543056,1.3416178,1.6569812
2.2616076,2.7583702,1.3391159
2.081792,2.3969586,1.5566291
1.9813188,2.2368267,1.5132767
2.0540733,1.2123942,2.8307643
2.2614803,2.9626746,1.9247786
1.5708171,2.6578493,2.2148588
0.03625989,1.8849481,2.8716366
2.323602,1.1032498,2.0614796
-0.9903605,4.085766,2.2880416
4.3206773,-0.3320601,1.530098
2.2857008,2.7937748,0.9042654
1.6918594,1.761969,2.9390962
3.0100393,2.6027367,3.3767586
2.273457,1.9700012,1.7183375
2.232394,1.4600265,1.908376
0.5600747,1.073453,1.9862233
0.7741226,1.1103659,1.9383395
0.900735,2.3794296,-0.025999546
1.374758,1.2788169,2.0828056
2.1192687,3.5143824,0.32153797
0.8146626,-0.19651604,2.1758435
0.72084606,2.8511333,3.047774
1.0873884,2.3955655,0.44023526
2.1110215,0.37113786,2.1933367
1.6819329,2.3172848,1.1880965
2.7586985,2.4747567,0.7996336
0.65272987,2.3257515,1.8147786
3.0139554,2.8436813,2.1408734
3.41324,1.7505327,2.3974159
2.789167,1.146502,3.8413804
1.127929,2.0389469,0.9599484
1.2713621,-1.2189512,1.6993618
1.8254672,1.6986287,2.098871
1.9709535,0.88706017,3.1495104
2.7517145,0.9680617,2.485292
3.0580707,1.700327,2.0546486
3.7967567,1.4238923,3.1790724
1.1845711,2.2675045,2.638299
1.8486388,1.7901525,3.4720201
1.5755558,1.358377,1.4193513
1.9953907,2.6583593,1.982095
3.0892258,1.0093557,3.7336364
2.8772616,0.4030571,1.559562
2.4039857,1.1545969,2.649181
3.7336872,3.629562,3.7676072
1.2991965,4.3987575,0.81700015
1.5418309,2.517836,3.6158898
3.5689898,0.557879,0.92540526
2.262103,2.1086514,3.391752
2.8244772,0.967317,2.4454021
3.2094755,0.7554258,2.1732073
-0.07635641,1.6244252,1.2394866
2.6181064,0.37114584,2.5412447
1.9044096,2.122614,1.7217927
2.805427,0.90143716,0.2982819
1.8182796,0.9126655,2.249869
2.190444,2.3432908,2.1835825
2.7479722,1.092765,3.4590936
1.7856257,1.166121,2.9070635
3.448308,2.2824051,2.0208917
0.31414354,2.6233356,2.2245984
2.3311317,2.0578766,2.5689292
3.1884375,2.1438992,1.2882867
3.323718,3.0395446,2.642291
0.7259923,2.321774,1.5296295
2.7539415,1.9417392,1.8962055
1.3443782,0.54459155,1.7972382
2.2748709,1.9303344,-0.21048546
1.45397,3.072863,2.2027817
0.92212605,2.5621796,1.9008217
1.9322731,2.0702577,-0.7277136
2.3069227,1.2936943,2.8806944
1.9298595,0.60437274,2.0473435
1.102676,2.4377227,2.950277
1.3214817,2.8224463,2.294973
1.994983,1.1703098,2.6325054
3.3945122,0.37425947,3.095653
1.6410475,0.8844515,3.5939732
2.4423747,3.3233516,0.5397248
1.0452242,2.035043,2.122331
2.2285497,2.4876769,2.2568076
2.4170735,3.318425,0.7592062
2.914412,3.959176,0.70800877
1.1205724,0.87349427,1.8295339
1.7264779,1.710062,3.207305
2.4859886,0.7809657,0.46730494
3.0272415,1.8134384,1.5679983
2.5832694,1.7983489,2.493222
2.4030228,1.4366672,2.4058318
0.74232805,0.5504861,1.9558469
1.410601,-0.51066613,-0.20457554
0.007597208,2.1611533,2.8502584
3.3201537,1.8110471,2.289762
1.5396893,1.1691105,1.4839256
0.2673738,2.8411741,3.6231298
2.618327,1.5504516,1.4252279
0.7928091,3.264435,2.2603478
0.8414538,2.1315966,0.7595749
0.6656711,2.2464437,1.6980295
1.2541711,2.4935915,2.8830793
3.4292264,1.4140157,2.108669
0.98536146,2.556857,2.6981902
2.8563561,2.3895218,0.951097
1.0195532,2.9395783,2.4683554
1.5448225,3.2102656,1.8586773
2.0216448,2.4818037,2.2762582
1.1310824,3.3486505,3.3304982
2.575791,2.6904192,1.1566851
1.7296896,2.4105623,2.2602143
1.1795568,2.8566837,3.3113732
1.1856909,2.077779,0.9991492
0.26001382,2.7893395,1.994876
1.7575475,3.0778863,2.910318
0.8034215,3.0760326,2.3662202
2.7623725,0.7377387,0.8928889
2.0149343,2.12965,3.0099645
1.8991225,3.0831585,1.0840857
0.25945497,2.4810278,2.2661014
1.7723144,2.2379436,3.183051
2.1114535,1.0526798,4.3006005
3.2747788,1.523507,0.25091362
1.0722878,2.3513317,1.5958612
0.42247045,2.132526,1.7995446
3.3458805,1.6402502,0.6902231
1.3486435,2.8253222,4.614256
1.2067877,3.4854448,2.1165006
2.6407118,1.4002997,1.2998352
2.8611546,1.1114976,1.6643296
1.7732244,1.3453319,2.2169085
1.5435203,0.26396358,2.9244022
1.7249565,0.53831434,2.3868656
1.1372823,0.9040587,1.4576471
-0.03154421,2.2914987,2.355242
0.07131231,1.7979794,4.8906984
0.9306636,2.4190733,1.3030032
1.5813198,2.9614048,3.020184
0.69562733,1.407311,3.9082613
2.2916665,2.850716,1.2891183
2.9880087,1.6794615,3.292265
2.4631824,1.1063744,0.95087695
2.3243232,2.4511487,4.0332165
1.8399266,2.0130842,2.2013729
2.7104676,1.9302013,2.023456
3.4456964,-0.84820247,1.87881
2.40568,2.650306,2.6763268
1.7186335,1.1676022,2.4306695
2.9096153,1.8644985,1.8730103
1.7401983,3.198011,0.542222
1.956999,1.7365351,1.8089775
2.328887,1.026988,1.1200188
2.8487751,2.028043,2.61934
0.41566026,2.4850154,4.7347527
1.1989942,2.7627668,2.94775
1.6366388,2.7599285,-0.055568695
0.24106371,2.6106074,2.1232283
1.985785,2.4974983,2.3685045
0.5611669,1.0400052,1.4367745
2.6091762,3.776547,2.5754814
3.2139025,2.6198025,2.9672241
2.5525954,2.3641365,1.6459562
4.0609684,1.9261779,3.7825933
2.8851109,1.8448563,0.51077044
1.6308681,2.986341,1.7840471
1.199101,1.7285404,1.283184
1.8129127,2.0921867,1.8774934
2.5678728,0.51799345,2.9415803
2.291908,2.0802026,2.07347
0.68235207,3.3985713,1.5166702
3.169043,0.5039289,0.20058346
2.4711797,3.5531673,2.5680888
0.5793762,3.2373877,2.4554982
1.2160282,1.5301415,4.6170597
0.18930602,0.54281175,1.1397583
2.2137315,-0.44217157,1.7662976
2.0184085,2.3724546,2.4847965
1.8398523,2.320409,1.4724021
2.2192483,2.9122138,2.2948952
1.4078808,2.9464483,1.7856123
0.3052746,3.1385338,2.6619685
1.6263835,1.7438133,0.9113966
0.49749982,3.8240345,2.1942866
0.49468386,0.5548382,3.4026008
4.693638,0.7825537,1.2305241
2.8965976,1.7344748,1.7457244
0.8849596,3.3331363,1.6785257
1.8913904,1.9952474,1.9920653
1.4218011,2.17112,3.1349392
1.198693,2.5481946,1.9679248
2.0229058,1.6809595,2.8732016
3.5970964,1.3688667,0.8440739
2.7048287,1.8541458,2.0586116
0.40182936,3.1916642,1.5622199
1.7813936,-0.5535438,2.9166512
-0.032134056,2.812683,2.903507
1.5488914,-0.4288993,0.4456601
2.0160573,0.17031634,2.3381064
1.3306555,1.1822609,2.916709
2.3424342,2.6425464,1.5818559
0.788033,3.2162693,1.7919997
2.702853,3.651917,2.9651217
2.8842692,3.0938306,2.420058
2.0338159,2.1680546,3.5698278
2.5518894,2.0122468,2.2203462
2.4030375,0.6890811,0.3680669
2.5011995,3.4854794,2.1758413
0.5234449,1.0563351,0.9209001
2.5161772,1.1833012,3.048743
2.4339135,1.4237032,3.092165
1.5667706,0.27787566,1.8062801
3.1719203,2.9500246,2.2119784
1.6070224,2.2701209,0.35203075
3.3844438,0.62905335,2.1978397
1.4456624,3.8029997,1.6000676
2.0798678,0.788061,4.5387435
2.0072653,1.6300671,1.3584583
1.2191404,3.6279945,2.0774415
2.9777508,0.07200587,1.089196
2.4123676,2.2992792,0.34587026
2.3538673,2.1262603,3.3904662
2.3904061,4.0917006,0.7970971
3.0339422,2.9291415,0.25958014
2.6321564,1.9113604,3.7350802
1.8586419,0.68143094,1.0050516
2.910152,1.1625136,2.3713431
1.1765394,1.5563616,-0.26935172
0.06802988,2.1126297,2.5649223
2.8230686,1.8320823,1.458482
2.03085,1.1168364,3.200917
2.6462493,0.6931398,0.95209193
2.151324,1.5718977,3.447773
0.11130679,3.260073,2.9102366
1.100709,3.057339,2.654478
1.334609,1.2655542,0.16858113
1.1785266,1.166815,1.2206838
2.7131143,3.6763427,3.61362
1.860511,2.9176257,0.93818283
1.1614568,2.265372,0.3685372
3.4798536,1.9063632,3.0083284
2.0505795,1.1702336,1.5555152
5.368098,2.9342608,2.016593
2.034926,1.830279,0.84304285
0.3901168,1.9550145,-0.293669
1.4703815,2.2400098,2.4220972
1.7511405,1.534558,0.3228171
3.1397696,2.9407456,2.4500422
2.3221607,4.2077045,0.77516687
2.6736543,1.1484101,0.38173687
1.7747841,1.8596314,1.471521
1.9542168,1.9590039,1.6674203
2.1201403,0.7775483,1.4327742
1.4515502,2.8740242,1.3180883
2.6227827,1.7795608,1.1052637
1.8848568,1.6918797,1.1562259
1.8430924,2.7388177,2.347899
0.8229283,0.8499005,2.9596624
1.90866,1.5318826,2.059492
3.1563764,2.5126998,1.8388761
2.725172,3.3485107,0.79213786
0.9728035,1.264447,2.999617
2.6415522,2.9534352,2.4582312
1.181751,1.0051886,0.719885
2.4357681,2.626395,3.3781428
0.8457638,1.2862736,1.457547
2.3291383,1.3630188,1.6598864
3.1938229,3.0846596,1.2632682
2.8457859,2.1804166,1.7590194
4.7100253,3.3348403,1.806047
1.9611887,2.5369883,0.95693004
2.1694841,0.458336,2.1623793
2.7207422,0.5674497,3.829754
2.7570205,2.5592022,0.060552
-0.1506722,1.9369322,2.222124
3.4036503,2.3960822,1.3208268
2.2485926,1.9143301,2.341115
2.6114163,2.5699496,1.5907987
-0.033159256,1.999322,2.948962
2.813906,2.4510434,2.6382372
0.82092047,0.58594096,1.8590405
0.7424215,0.39297056,2.7292247
2.9041395,1.4387958,0.030561805
2.4121435,1.1821039,4.5882025
2.4605277,-0.24307609,3.6193914
1.4670068,2.3230286,2.8890939
2.115779,4.5524826,1.8398343
3.437747,1.5123087,1.4582843
1.7199038,2.3574243,0.541422
1.7998316,0.5471673,2.3865995
3.386648,2.6988904,3.1749415
0.959965,2.715354,0.5877106
1.4367714,2.3650532,1.3116231
2.4514866,-0.075387,1.4065149
2.5278392,1.9712362,2.164142
1.5418041,1.3869596,-0.16911125
1.3866953,1.3500417,1.5402466
1.5869954,4.0220757,2.6012237
2.220752,1.754702,0.64702547
2.7269304,0.21025252,0.6055224
1.1391566,1.6255879,2.8855557
3.318678,3.0758781,2.7426186
0.8040147,4.2644234,2.0479743
2.8382778,0.052229166,1.4034967
4.7766037,2.1187887,0.88252914
4.2295113,0.98244905,3.215801
2.0541656,1.9164089,2.5599165
2.528385,1.7136745,2.0437455
3.2581635,2.4181604,2.7427254
1.5724037,1.4467561,2.4237542
1.2246372,1.0816851,1.5457747
2.3389857,2.0299714,1.8164324
1.1473573,2.1947005,0.7170658
1.6698694,2.778022,1.3578303
3.3101878,2.3888311,2.9180343
1.774018,2.2231507,1.9653866
1.7728608,1.3486483,2.4893525
4.5821657,3.0621505,0.42181242
0.6056503,4.031063,3.604484
1.5189483,2.29987,1.1890447
1.635045,1.8264213,3.152763
1.2688177,2.422634,2.5127103
0.8735081,2.7280817,2.403771
1.4688063,3.1881933,1.2644603
2.1143045,2.196267,2.547985
3.9558759,1.0725653,1.6686037
2.6432126,3.4419165,2.1786535
1.9889627,2.877096,1.4431698
2.0185676,1.0220304,3.907118
2.9323273,1.0818896,3.4969645
1.4474881,1.7590562,2.2151992
3.3633943,0.87053025,1.4623902
3.154868,1.9839635,0.36151993
2.712545,2.9395146,0.2994063
3.849361,2.9248385,2.8588202
2.6556087,1.6438627,1.8529078
2.3599803,1.7766918,1.5568652
2.0747309,3.0741286,1.8591739
2.365899,2.097414,3.127881
1.7324357,2.709931,1.4309995
3.4837878,0.3722235,1.0630873
0.88339424,0.6292763,3.2023382
1.6923598,1.7217876,3.0343714
3.7742014,2.8802488,0.24740684
-0.38246346,1.3788168,1.5957615
1.2730108,2.0838795,2.761747
2.4057057,3.4985883,2.1571908
3.5213628,3.1862001,3.1618536
1.0874844,2.2675035,2.6955156
4.143056,2.4361987,-0.40684986
2.8983984,1.8028511,1.0406746
3.6925752,1.4803314,2.9953914
1.4504113,2.203301,1.2232606
2.7188115,1.0019974,-0.0068159103
1.8234243,4.11347,1.1016593
0.41611648,1.6076319,1.856223
2.5897808,1.8255697,2.4901698
2.0340006,0.34561527,2.600014
1.2941875,4.3046455,1.7399321
1.3046017,1.7737924,-0.17267585
1.789979,1.6056488,1.2456081
4.1429005,1.2264857,1.2754653
0.77854466,2.1424112,-0.5480981
1.0371869,2.408427,2.4608767
2.9753175,2.2706459,1.0193102
1.9659429,1.1124899,1.2495399
2.5771756,0.24392676,-0.666178
1.7712306,0.95645416,0.7361883
1.688654,1.5215083,1.8721821
1.0127817,1.0254132,2.0917315
0.1349361,2.9335864,3.2760944
1.5761609,2.197069,1.1657121
3.3198383,4.0347004,2.049331
3.3445168,3.0115986,2.9308999
3.110798,2.5118713,1.155223
1.1465822,0.4034871,3.4023113
2.4936914,0.8226726,1.0528734
1.846975,-0.5726402,0.7125579
1.5766168,2.372932,1.6613228
-0.15845704,3.0978456,1.7787954
2.7381258,-0.76835346,2.24974
2.92581,3.290936,2.6932077
2.8531015,2.335085,1.2914853
2.0719414,3.0131755,1.3022723
1.2906926,0.7819886,1.620456
2.2985144,1.8947908,2.7559419
1.4236367,1.7781862,2.438103
3.5278974,0.78538036,-0.016498089
1.6367242,3.5012596,3.345837
4.081249,3.1847427,3.5499897
2.851067,2.6594481,1.9861456
1.549544,0.629406,3.5555215
0.8000176,2.53695,0.8123739
1.8404156,0.8502834,2.73715
3.1554046,1.0312926,2.8647861
0.8788327,2.5683026,1.2117791
2.4353902,2.3879244,4.17743
2.7712002,1.332912,0.15441191
2.2130222,3.480277,1.6643339
1.8762479,3.3835154,1.3643765
2.8728666,0.5848001,1.8786837
3.033444,2.6182723,1.3632958
2.7639718,1.8834945,0.8318119
2.679985,0.9466009,3.348133
1.9216558,2.804802,2.6754189
2.6461358,0.73961544,3.5137677
1.7676224,3.9457326,2.7324486
1.7315699,3.543828,0.1556555
3.6713014,2.2050989,0.39958417
2.8165178,3.614202,0.75064695
2.7630568,-1.0740266,2.3682637
2.3219936,2.6807687,3.3289328
3.131115,2.1270258,2.9245894
1.125509,1.7620304,2.7662702
2.2868419,2.9824855,3.7341824
2.733643,3.5633574,1.6414564
2.4551518,2.4465117,2.0193124
2.715148,1.5910171,1.5218917
3.4857495,2.031912,2.499072
1.8192286,1.6521676,1.5040882
2.3047051,2.628253,1.4521282
1.8201411,4.033676,2.6308036
3.69739,-0.15126371,1.8830687
2.3729198,3.0059662,1.5674496
1.439092,1.9806075,1.9470756
2.3778267,1.1490557,0.70047367
1.919392,1.804147,1.9422141
2.1916716,2.6967497,3.0160635
1.3574708,2.2892232,2.321268
1.0545037,-0.4732437,2.6262875
1.5829396,1.6807433,2.1046104
2.2997203,3.653985,1.079231
2.0700352,1.7980434,0.537469
2.4019763,1.155116,2.3487628
0.7304082,2.3367057,0.857618
1.9955832,1.703371,3.50463
2.898624,3.303666,1.1387708
2.6863935,0.3697734,3.6458614
2.3551288,3.4427123,2.4815102
2.639689,2.5563931,2.458367
3.093205,4.090184,3.453615
-0.37291884,2.7699494,2.6962414
-0.49865127,2.2223604,1.1256901
2.7362778,0.707003,1.8143085
0.20782876,3.1697164,2.5068445
3.4791174,2.5881195,2.5868735
2.1486673,0.42772543,3.9377522
3.0602126,-1.2611101,1.2018692
3.4640696,0.6798072,3.396058
0.7959063,2.4599547,2.4619215
1.1641359,1.3042977,1.7011033
1.8005261,2.9176412,2.97007
4.284767,2.2285988,2.4836571
2.23842,0.08691871,2.8080971
1.5883396,2.5925899,1.445152
-0.9202261,1.8036144,3.1541853
-0.47739244,1.3933756,2.0007823
-0.118003845,2.5166855,1.1142936
1.5237561,2.9356043,2.2903001
1.351553,2.8957162,1.1805778
2.3755057,1.4367847,2.1214554
2.2005856,1.0196698,2.5215487
0.5852065,1.2109938,1.4548852
1.2410398,2.5161622,3.2083688
1.8947806,2.6850514,2.3846803
1.1886322,3.1100564,2.6458247
2.4733577,4.217157,2.5228584
1.1128997,3.013126,3.2689447
2.822106,2.4931452,1.0053587
2.5584261,1.6394684,1.5238307
2.713614,1.820013,2.0676212
5.1814327,4.6011086,2.7752795
0.8368937,1.6333671,3.042442
2.772067,5.106474,2.0047753
2.240586,1.4054675,2.1345384
1.5786581,2.3007913,1.9055284
2.3129091,1.8006896,3.0819616
2.303699,1.0006744,1.1566412
1.1532966,2.9580956,2.3908787
0.94428766,2.395417,2.1427903
0.957482,2.3141487,2.8863044
2.2734163,1.9895818,2.5042484
1.308795,1.954809,2.7503586
1.0606185,2.7550378,0.80267584
1.7732311,2.4077065,2.4182947
1.5721121,3.578691,1.2263455
2.0322309,1.3258369,0.30597997
1.8035711,2.2170663,2.1046839
1.5637081,3.3073902,2.3968303
2.58949,0.97983754,0.072087765
2.5834827,3.1826408,2.888185
0.44247282,4.1977034,3.66324
0.18840027,1.9110248,1.9893956
4.478635,4.1617775,2.1986415
0.56427836,1.542221,2.432475
1.5988086,2.6189494,2.4891126
2.9348812,2.4279008,1.9418354
1.9344872,0.06235802,4.222739
0.9235283,1.95524,2.4798806
2.6539168,1.8243377,1.6544735
2.7872767,2.3863482,0.63331413
1.2680335,2.9796262,1.8091145
2.5802963,0.9357507,3.469917
0.3730179,2.3429396,2.0042176
3.2870247,0.7228823,0.34178662
1.3733357,0.38368154,1.8368806
1.605033,1.8048005,1.2162211
1.3004767,1.151437,3.173861
2.0937376,1.8708816,2.9670796
0.69770575,2.1290185,3.2810903
2.564698,1.2736098,-0.08410478
2.11447,0.359771,2.635873
2.9833026,0.25720978,1.5821601
2.5338454,1.1142474,2.0387359
2.140464,1.0644412,0.7160903
1.3243847,1.9032466,3.6766186
2.0595753,0.8149307,0.0827024
2.001808,2.95675,1.2508932
2.52998,1.9717394,2.5513504
2.1108882,2.0430331,0.23277462
2.8248456,0.8487301,4.074188
1.7417221,1.8581076,2.4645689
1.3261682,3.4560473,2.0752566
2.016692,0.109326124,2.4088964
1.158616,3.8120513,2.5111227
1.815078,0.87740743,2.6686304
3.6491609,1.9960146,0.1843679
1.1061449,2.4439557,4.1459255
2.2032595,3.2519963,1.0217669
2.669578,1.4403763,3.2979746
3.0161133,2.6194317,3.285483
2.1951551,3.7043843,2.858233
3.919816,3.421376,2.9929202
2.5724528,2.3496363,0.42198884
3.2172863,1.9396446,-0.076989174
2.918,2.8698783,1.9622178
1.5069256,2.9375916,3.6968036
3.1067011,1.8032427,1.0248303
2.4751978,2.5655875,-0.16862798
0.67526877,1.2271204,2.633564
2.6348722,3.0890684,1.7829843
2.3223808,1.6936615,2.3427448
1.4885728,2.331709,2.636072
2.4562776,1.7461672,2.1304982
1.878542,1.2015061,2.3801067
1.8044252,1.9798856,2.7953246
3.3306317,4.5712156,2.0259814
1.9507089,1.1238229,0.9849025
1.0082995,2.8008196,2.5773005
2.526868,2.1172478,-0.902843
2.467198,2.8203528,1.6552407
3.9937487,3.6384087,2.0305707
1.3130354,0.7305182,0.5140126
2.2843616,2.7231266,0.5780674
0.78052235,2.7934947,1.0379603
1.0928179,0.22703004,2.329895
1.738586,2.7387066,0.94929206
2.3813574,2.694638,1.8447684
3.6355968,0.63711214,2.1262918
1.4518579,2.1164687,2.3981383
2.8284109,1.5774791,1.6283298
2.9014244,1.7734802,1.578841
1.0220983,4.0847154,3.0745454
1.1365175,2.8137286,0.2540269
2.4846,1.5169141,2.0498023
1.225893,3.3735945,3.4420412
1.600595,2.624729,2.4419246
2.1737657,1.2976363,2.3293955
1.912072,1.2309332,2.4430616
2.5762038,0.8004608,0.06985748
2.5139585,2.0573668,2.2508898
0.9765456,1.9151042,1.3858056
1.6665156,1.84273,1.1763754
0.9085008,2.9893231,0.23103178
2.17792,2.6735084,1.9477751
2.0710106,2.0810285,2.7104115
2.5650308,2.0462432,1.7441823
1.2353112,0.76222134,1.8984476
0.31504965,2.4597154,1.5160322
2.4102452,3.3947177,2.5853758
2.3661356,0.8286935,2.7293897
0.23724091,0.19214523,2.463157
2.552991,-0.26499224,4.392616
1.3511527,3.8302748,2.7553022
0.17295945,0.72160697,2.5905895
2.0353348,2.4988515,0.54382277
2.336898,3.5298119,1.194522
2.4269753,2.696101,1.6700344
3.0243506,2.7424095,2.7510884
2.4319308,1.6489897,3.007799
2.128631,1.9862288,4.0549526
1.6253209,1.6697491,3.414826
3.8560405,1.9187025,2.7996256
2.4862223,2.868454,2.5241838
2.2370982,2.9634027,1.9826009
2.1344538,0.51047707,2.7436144
2.5923295,2.1113424,0.8018886
2.423224,2.4915714,2.1399865
1.4972715,2.7912107,2.137461
2.7910025,0.38532925,0.41023588
2.055549,3.571257,4.2653475
1.9890183,2.9024158,1.9549602
2.6394897,2.1598463,-0.42492938
2.0393417,1.1234784,3.9752917
2.1827655,0.25186896,4.6470175
1.6145782,3.0213118,0.5147233
2.3674548,3.236949,1.4460394
1.5539274,2.193313,1.8599075
2.8379908,4.2165413,2.5856652
1.7896955,1.5057341,1.4181302
1.8703926,3.633898,2.732131
0.9681351,1.6002318,2.5528793
0.6767981,2.7802963,2.5511744
1.8645316,2.1161175,2.3144774
2.3256764,1.6025231,2.4108448
1.396743,3.0938473,0.6740893
2.9088287,0.633675,3.5372524
-0.1692543,2.3721626,0.58163595
1.5665712,2.7262077,0.45346785
1.8617213,1.4763193,1.1545787
0.14600134,1.373465,2.3733435
1.4925733,2.1867194,2.6554763
2.1970718,1.0756421,2.3423035
2.3564363,3.672357,2.5876021
3.0879984,2.9477448,2.893659
1.4909958,2.871684,2.9110382
1.1314466,2.1565368,2.1808958
0.9265195,4.0902677,0.61528456
1.199965,1.876944,0.8136364
4.171939,0.690436,2.8138616
1.9685264,3.6387503,3.8650746
3.002096,-0.9019232,1.218183
1.3173432,2.4189913,2.6876268
2.0452878,2.5861425,2.297349
1.7689731,3.6715903,1.9267366
3.3828554,3.514593,0.8619735
1.3118815,2.269363,2.672748
4.4540324,2.1172478,0.6353787
2.6553416,3.7871413,2.4949129
1.5046222,0.012634754,0.04782605
0.38345313,0.9471271,1.7309558
1.2870407,2.4121673,1.68502
1.2355032,2.0250795,1.4463222
4.0603113,1.6477299,1.6674209
3.8470879,2.4196038,2.950317
2.3092673,2.648766,3.30072
1.2637808,1.7111179,2.7631302
1.1688176,1.86514,2.8912916
2.0587907,3.4380956,1.2496933
1.5186654,2.0083015,3.7472107
1.8619769,2.2347262,2.1382098
0.6366193,2.3767679,2.4944477
1.4849764,1.9724113,-0.9459193
2.4148378,1.1985455,2.2652807
2.8000345,2.4538975,3.201233
2.6961548,1.0861835,2.542803
1.085568,2.0491445,3.2989645
1.2725184,1.8994339,2.4194803
0.7346871,2.1631324,1.1780623
1.5573691,1.7831126,2.0385313
0.85553086,2.2610917,1.8345575
3.5365164,3.1191235,1.4416012
-0.1886909,2.3370137,2.7247634
2.9993272,3.6954193,2.0003786
3.0353017,3.5195765,2.0211847
2.6324096,2.838689,1.5623959
2.9905424,2.3632846,3.4681988
0.9417323,2.5132124,-0.0068929195
3.251159,2.424725,3.557763
0.95109713,0.7990124,1.5599916
2.7814927,1.8168991,1.2025326
1.8432167,2.583148,1.3394656
0.053170323,1.66647,1.2895824
1.0743484,0.8985516,3.422783
2.9793878,1.5895499,2.8959208
1.0614157,2.2101872,2.2238667
0.7704011,4.195199,2.610022
2.0983808,2.3300817,2.735417
2.8893163,1.24965,0.6926385
1.7520672,2.6697397,1.9157681
1.7065,2.8005278,0.9163097
1.8726301,1.9942356,1.3698496
1.9426763,2.9977598,2.31687
0.27041614,2.8721852,2.8703527
1.4066865,2.20146,1.3179281
1.1824234,1.611983,1.5255524
-0.9445865,3.2001805,1.051348
0.5134475,2.430407,1.1128199
0.7384857,2.0649874,3.3974261
0.25662327,3.2550516,1.7424839
1.6592809,2.917563,2.5402944
2.0669398,0.7412759,1.5639532
1.5538627,0.91373575,2.332823
2.1685607,0.79973173,1.0352892
2.8592033,1.967961,1.6577275
2.5446537,2.7714734,2.2202442
0.55331755,0.8405621,2.0936701
0.5940591,2.8817377,3.2564962
1.0046029,1.6187576,2.991218
2.614195,4.8130083,4.2120905
1.8613772,3.8649077,2.89619
-0.28542376,2.7703726,3.161799
2.080823,2.0990787,2.2692862
0.2992046,2.0775902,0.60972095
2.4117937,1.6656804,2.956628
3.34309,1.4455055,0.7983209
1.8541825,-0.1422174,2.4607673
0.89870703,3.841243,4.198867
2.1813238,0.6760992,0.99337137
0.9486816,1.2918762,1.3511243
3.9761024,2.551503,0.9013736
2.831987,2.6801014,2.5780566
2.675902,3.2095942,2.3154244
2.1870959,1.4865341,2.2666116
3.440351,1.3531237,1.8647363
3.0779061,1.1703632,0.1713053
1.8623621,0.032226443,1.8549503
1.5885487,2.3990698,1.8062257
0.9025216,4.3777046,1.6615877
3.0841107,0.58280015,1.7485207
3.4356384,1.8623644,2.179339
1.4322164,1.419189,2.9756756
2.620119,1.7829769,1.8378565
2.0882494,0.5388981,2.508134
1.2338704,1.1965371,1.1716249
1.8985585,3.5742893,1.3577269
-0.39701104,1.5301503,1.1428168
1.6725724,0.75174785,3.2126284
0.96956193,1.0675719,3.851231
1.1981432,1.8069819,3.4701216
3.9826055,2.5380754,4.147665
1.7016686,3.2202587,1.8472474
2.901568,0.77771866,1.628787
2.71013,1.3019562,0.90170264
1.636961,2.5177412,3.0215027
0.054745555,1.6979533,3.584724
2.3769045,1.3489902,1.7174318
3.185585,4.0783033,3.0743275
3.646037,1.7597858,1.1214577
1.5359389,3.4004924,2.762723
1.055114,0.826391,-1.3500283
3.2669873,1.3789902,1.5268797
1.7007002,1.5538298,0.5301411
2.0349562,0.56477857,3.1082158
1.6490862,2.6345694,-0.21129656
1.9537989,3.2719836,2.3579948
2.5504982,1.3905084,1.1633637
0.7485963,1.3208101,3.1856735
1.9923215,2.3570504,0.18830836
4.072999,0.9113188,1.3854403
1.1034855,2.3256721,1.5167723
0.16811049,2.0674515,1.1076021
0.7229353,2.6139657,1.5820563
2.345618,2.8047,1.6231185
2.3318036,3.3668537,1.6228315
1.6021049,2.8818195,0.30811322
1.7824754,2.9164286,3.3621006
1.8974041,1.8111596,2.4370892
2.3032994,1.7652881,1.7800248
2.0135195,1.9380665,2.3810325
1.1420383,1.4051721,2.971118
2.5236824,3.0563796,1.5874035
2.2126067,2.404845,3.0745027
2.4085503,0.13442433,1.9190558
0.6568235,0.029523015,3.9431748
3.2811525,1.9177297,3.440185
2.0889554,2.3813422,1.7881016
1.7602236,-0.79641366,0.8371419
3.3837318,4.3047547,2.6765428
3.1869373,0.92517924,2.168556
2.70829,3.8987002,1.9432659
2.7730365,1.3620632,1.8894068
1.3047128,2.5036135,3.7924364
1.1372948,2.2416403,1.1308931
0.85241437,1.5580021,2.133736
0.37015784,2.5364032,1.0761871
1.2906237,2.6741984,3.7002234
2.1614072,3.3582873,3.333024
1.6688335,2.4706075,1.7355517
1.9056996,1.9371936,2.247511
1.3770578,2.2424662,3.3177543
1.7664278,3.6609068,1.2041776
0.093741536,2.6561608,1.8664895
2.209244,0.84803224,0.86862326
2.3104763,3.1418312,2.8222542
3.6480484,2.7459834,0.8502027
2.5889077,3.214611,1.4550412
0.511749,2.2202466,1.272412
1.2607622,2.6901345,1.6568525
3.346298,2.2432187,3.1815476
0.2719674,0.7101711,2.4316018
2.7247062,2.8077652,-0.48565125
1.9109281,3.453114,-0.86404204
3.5433795,0.0034381151,1.3578992
0.83108354,1.8133599,1.2503153
1.5566967,2.0539625,2.7595494
2.3833985,2.6565962,2.8807876
2.6026356,4.4596224,1.0931447
-0.31325078,1.2021432,1.2547642
1.5840675,2.3869271,1.6518401
2.7942526,1.9719161,4.1398764
2.199146,2.7225523,2.6948867
2.262209,2.3691087,1.8722948
2.755338,1.3501284,2.2402704
-0.22288656,3.3997607,3.3325093
2.3738773,2.2457771,2.094777
2.3497343,0.71987796,2.0213542
2.995387,1.4824972,3.0965648
1.0339425,1.6821756,2.9663417
1.1125875,2.4383535,2.548002
3.6426322,0.83424354,2.2566972
2.340485,2.7361336,3.4946427
2.384985,4.098996,2.4414952
1.8447628,1.5229936,1.6835012
3.223829,1.681043,2.2024083
1.7956741,3.3077078,0.6644983
2.8617349,2.7765572,1.7082641
1.8692482,0.6617484,1.0818584
0.32456875,0.7692342,-0.25016403
1.8774701,0.9796027,1.6388509
2.2213647,1.0193467,2.350389
3.833592,0.91962504,3.098526
0.53871,1.903691,2.177046
1.6564326,3.1247745,2.3872128
1.2089,1.2274094,1.2909317
1.5636909,1.8876643,0.8391124
2.217233,2.686862,1.4930167
-0.096066475,1.5204009,1.1163585
2.8045611,2.5811963,2.8847518
0.6829879,2.5920966,2.4824314
0.79646313,0.37473977,1.5627825
0.14115238,2.0599096,0.62519586
3.6854835,0.6894835,2.7109988
1.2747318,2.7326229,3.6167798
1.3951828,1.4053994,2.5978055
2.5066574,2.8561523,2.449434
2.6101086,2.6315746,2.2395658
1.4499959,2.3820035,3.3447273
0.6773399,2.2243438,2.4949322
1.9439014,1.4965358,0.6833017
2.548397,-0.12884879,1.7356704
1.3414497,3.7432673,0.4644016
1.6716733,1.8715472,2.2284834
0.6916995,2.5858827,2.9932694
2.1520083,0.33620608,3.6825352
1.030529,2.229281,1.7838621
2.602624,2.3978615,1.3585594
1.7215165,2.0732505,1.4537772
1.6730409,0.96616685,3.132293
1.6634388,2.0800812,1.2227526
