x,y,z
0.120917015,2.7702475,2.985574
0.43616024,3.129877,2.48009
0.9412208,2.9714832,2.7380655
0.8012664,3.3137224,2.2975657
-0.08949069,3.3640094,3.4685144
-0.30529976,3.2128522,3.6440506
0.27318656,3.0277886,3.4544322
-0.35470247,2.1700196,3.3969228
-0.83973134,2.9500835,3.6801023
0.1766032,2.4666111,3.7163675
-0.046492923,2.786736,2.8500383
0.2664788,2.6289392,3.4669287
0.582185,3.3280118,3.2629588
-0.1991543,2.4970534,2.8755212
-0.95922,3.9675772,3.142048
0.058271,3.5664935,3.7011762
0.040163916,2.8494961,3.3876445
0.4243095,2.306105,2.1812897
0.35454705,2.7931798,3.393772
0.33759576,2.970828,3.2349737
0.09181715,3.3150778,2.259551
-0.31581116,4.119837,2.1993656
-0.2049166,2.6395066,2.7329953
0.7659176,3.2245977,3.0227358
-0.1311789,3.0595298,2.1492724
0.03401084,2.6600587,3.2007058
0.6145145,3.112778,3.089163
-0.41046518,2.7593226,2.3587177
0.06778919,3.8066347,2.398116
-0.30342677,2.2278519,2.5913315
0.40689805,2.9370804,2.4887476
-0.10281341,2.842825,3.357056
0.45877367,2.7898004,2.5637836
0.6913886,3.0474076,2.5148447
0.7803059,2.574714,2.3346722
0.6211588,2.5281603,2.5550044
-0.102727324,2.9768858,3.8212051
-0.89134705,3.990219,3.4994323
0.16095833,3.6127021,2.603255
-0.5425954,2.2346568,2.6999822
0.5780631,3.3064327,2.683405
-0.38158298,3.7303603,2.7895799
-0.11075855,2.7886198,3.1486287
0.3174529,2.397551,1.9357145
-0.1851765,3.4576974,3.2579532
-0.5807176,3.166931,3.3036778
0.4251109,3.573644,2.8024104
0.27012512,3.6326656,2.3903148
-0.7417822,3.1608918,3.0029838
0.20509629,2.9744112,2.4908242
0.28392214,2.1939938,3.8809214
0.26186183,2.524689,3.0825891
0.22209802,2.663246,2.6388621
0.21043096,3.39288,2.4126005
0.28837535,2.6876204,3.1518116
-0.4963555,2.8160903,3.1719027
0.5338819,2.5112753,2.8252442
-0.29333425,2.9244,2.48343
0.582421,3.3856251,3.1264694
-0.33881804,3.7010765,3.587624
-0.80144155,2.4513416,1.8382041
-0.66666085,3.2192686,3.1586914
-0.122046,3.0436435,1.4678781
-0.14751191,2.9039369,2.641736
-0.28489515,2.6245673,3.2059464
0.6858817,2.5031846,2.0138507
-0.097858265,4.1018124,2.2320232
-0.20473121,2.8178666,2.6388915
0.50896674,3.283201,2.7869396
-0.0021934651,2.9812722,3.3318906
0.19842598,3.2032895,2.9765184
0.32289496,2.393496,3.4911878
-0.54167545,3.830985,3.4488244
0.334678,3.3247313,2.198301
0.046440974,2.9058595,3.4266305
-0.36176303,2.955632,3.1148016
0.056502007,3.1535912,2.9431667
-0.041297525,2.60489,2.5368764
0.82802224,3.230764,2.6439927
-0.29077798,2.7407606,3.2025082
0.35221028,2.2022836,2.8956285
0.06814442,2.2493,2.7173893
-0.45466048,3.4063709,2.786836
0.23108749,3.6129124,2.771478
0.040655825,2.6955492,2.8992121
-0.49449623,2.5042567,2.750795
0.15340118,2.416861,3.228645
0.2094078,2.8673286,3.3333006
0.66418463,2.9266808,2.9662216
-0.093692034,3.0544834,4.090042
0.5024174,3.0454497,3.266232
0.79069185,3.244776,3.3831515
-0.15306953,3.5905838,3.300753
0.11331018,2.9628692,3.1517165
0.6971597,3.1098413,2.2071917
0.24529643,3.3116634,3.338261
0.3071872,3.269404,2.6450167
-0.63425636,3.0173864,3.5104403
-0.0918471,3.1419864,3.448878
-0.03275516,2.7265882,3.8273692
-0.7314263,3.866955,2.352116
0.44230098,2.2510104,2.117059
-0.7718051,3.7130167,3.4366794
-0.035546,3.2999823,3.1289723
0.8004795,3.3004162,3.4161608
-0.5437406,4.078727,3.4856148
-0.047370076,2.7354624,2.916535
0.5392529,2.128891,3.9939523
-0.64452595,2.579886,2.6732156
0.27619284,1.4733126,3.5485938
-0.019799205,2.710218,2.6105084
-0.33393312,3.216505,2.6397185
0.42380014,3.3439934,3.0889187
-0.11400554,3.205515,3.7034748
-0.4667929,3.1163194,3.7744389
0.14605206,2.2320952,3.64502
0.95648885,2.8741655,2.6232104
0.27868626,3.0054183,3.66233
0.61467856,3.21076,2.8864698
0.18397817,2.9391868,2.831139
-0.2973226,3.5204182,2.622805
-0.9264772,3.4634836,2.1380553
0.25997388,3.2694826,2.430594
-0.021895118,3.1546896,3.0137482
0.05849064,2.9725294,3.7072623
-0.092997134,2.2796173,3.1180844
0.3782335,3.2559729,3.655371
-0.0244897,3.4622104,2.3839238
-0.10970324,2.7070916,3.6912684
-0.025944352,3.1416633,2.7836099
0.36797777,3.1627922,2.5711184
0.54171276,2.2936177,2.4140558
0.3697995,2.8546865,3.0886793
0.6129346,1.9468361,3.2746294
0.6441395,2.907164,2.7160943
0.9409715,3.9820857,2.0489938
0.1677251,2.4224796,3.2655993
-0.17052098,3.6133008,3.0752983
-0.22336417,3.150784,2.634796
0.941524,3.3562813,3.1231298
-0.37171888,3.0063677,2.7075663
-0.43938243,3.5235684,3.5165958
0.389105,3.0088518,3.1855512
-0.9123568,3.2301085,3.5416937
0.36394203,2.8863978,3.3072748
1.4501582,3.694856,3.3660865
0.17870922,2.7497778,3.2812867
-1.3062234,2.400077,2.7563446
0.75760996,2.6318738,3.0411532
0.035163358,2.8574743,2.5037289
1.1089033,3.3196216,2.7204704
0.49844402,1.92208,2.4286
0.50124586,3.3861077,3.70779
-0.08187926,3.3571632,2.172031
-0.6525757,3.5153518,3.7297714
0.78805244,2.013425,3.0206072
0.3609651,3.0744643,3.3246083
-0.25632623,3.23895,3.0623674
-0.3230034,3.1360636,3.5135248
0.19299197,2.9364974,2.5333853
0.24419545,3.337832,3.0398905
0.8659852,2.922257,1.8103325
0.39007688,3.119214,2.5043087
-0.7086619,3.3185997,4.007296
-0.2832146,3.009222,2.7477565
0.4122935,3.1518462,2.9765477
0.31761333,3.9554024,2.990111
-0.012670651,3.3966568,3.6559348
0.29754713,3.021265,4.297741
-0.17453526,2.9604628,3.0727718
0.19764903,3.22098,2.584363
0.27202302,2.6390827,2.6975276
0.33534265,2.7896378,3.0503805
0.59022933,3.6524804,2.9200387
0.11043667,3.2260456,2.6071572
0.13771963,2.5613275,4.0515285
0.18150824,2.8542037,2.9225311
0.24184074,3.0676138,2.758459
0.41787657,2.8582401,3.1996357
-0.0703729,3.1609309,3.6888998
0.39726865,2.6232522,3.3341832
-0.40374482,4.1256843,2.538996
0.13395938,3.0753102,2.9645722
-0.34598008,2.4885812,3.4856458
0.54830265,3.5080638,3.1209748
-0.27308244,3.122763,3.5350409
0.5792429,3.0288796,3.6055357
0.04695745,3.2229118,1.9370772
0.24336705,2.779224,3.0576873
0.44663373,2.985047,2.5861278
0.9205487,3.9250395,2.1609669
0.7444769,2.4914758,2.6811874
0.3231938,3.314969,3.1447484
0.89102477,3.416894,2.8515294
-0.4465697,3.2733667,2.568112
0.060999118,2.5112975,3.6570694
-0.2831932,2.7506056,3.163276
0.1762651,3.795001,2.5098226
0.24663784,2.2878923,2.8094735
0.47134447,2.1238859,2.9992478
-0.15213083,2.1404905,2.5469553
0.28011706,3.3781896,2.8850346
0.6136651,2.9264805,1.882449
-0.9922462,3.5879302,3.3540723
-0.34387648,3.2042298,2.005278
-0.16708247,3.0975451,3.880315
-0.680181,2.729397,4.202201
0.44907036,2.8658834,3.3374364
-0.13131943,3.800985,3.0560744
-0.96139455,2.6988583,3.0120463
0.3201412,2.7085626,2.374309
0.50891125,3.2032967,2.8698895
0.2446644,2.4809878,2.388331
0.47430348,3.5045934,3.0953243
0.19855015,3.2461767,2.4081676
-0.19606861,3.5142722,2.189924
-0.12919825,3.0270529,2.5929894
-0.4839487,3.6513157,2.5690322
0.4381281,2.9818158,2.3716607
0.14739725,3.69417,2.7286534
-0.47543684,3.6650817,3.43078
0.02132729,2.7852502,3.5361032
0.16520786,2.4427934,2.627489
-0.67210335,2.675436,2.741055
0.09447442,3.2143657,3.3839087
-0.3488493,3.1716132,2.5624688
-0.0070016594,2.7422607,3.072256
0.43645734,2.6991613,3.972033
-0.22524312,2.0122836,2.8743
-0.520668,2.6785934,3.1201072
-0.036808833,2.822086,3.3356452
-0.56788814,1.9917002,2.6456685
-0.21368323,3.0023456,3.0766551
-0.58823395,3.9050026,2.4558976
0.20641552,2.6057258,2.6842082
0.8277188,2.445085,4.0240765
0.48363614,1.2516521,3.029448
-0.18391514,2.82977,2.9338624
-0.49362957,3.2237144,2.95432
0.2170992,4.147138,2.7992098
0.39521998,2.8588414,2.4605737
-0.10479255,2.7919993,2.835234
0.27509132,3.0057914,2.9368205
-0.119356856,2.752962,2.37845
0.26711178,3.330426,3.1863623
-0.33032703,3.2683237,3.3307831
-0.109338805,3.485191,3.9445753
0.45550343,2.8278415,2.7855208
-0.8518082,2.467546,2.5174365
-1.3987731,3.2313943,2.6092193
-0.09647038,3.7928483,2.5064647
-0.123295635,2.6979382,3.414368
0.61040366,2.1497014,3.5605338
0.3593621,2.0202613,3.8496885
0.8732454,2.6892598,2.751407
-0.6452682,3.528621,2.8466735
0.6388573,2.4302685,2.5184596
0.29534355,2.762269,2.6684077
-0.24264072,2.750875,2.4262
0.7594602,2.9373622,2.5244813
0.8232581,3.1211538,3.7499304
-1.0065144,3.4835522,2.7921019
-0.11468523,2.2803125,3.5617855
0.80858576,1.8989972,4.1469603
-0.94454634,2.423007,2.4319556
-0.51652324,3.4419136,3.3151495
0.044165764,3.5313795,2.997542
0.16838075,2.3138313,3.2465334
-0.11332325,2.9677672,3.2532256
-0.11131565,3.1063182,3.086353
-0.34502876,2.950109,2.9233882
-0.3164101,3.0496955,2.8184981
-0.33483708,2.7900949,2.521979
-0.009197765,2.516632,3.4661856
0.13881233,3.2284997,3.2514045
-1.0132687,2.332274,3.3833265
-0.47096968,3.2294264,3.084042
-0.03660844,2.6772165,2.6348886
-0.2497665,2.890384,2.875193
0.46844858,3.2107797,3.324539
-0.5630589,2.6672363,3.2140605
0.0800446,2.7385316,3.5784037
0.6851935,3.4550796,3.1065853
0.66783035,3.2433977,3.2473571
-0.33333135,3.521149,3.0151038
-0.018360434,3.1471956,2.91777
0.35817733,3.9848986,2.731773
-0.9874812,3.1014075,3.2359982
0.5300819,4.060827,3.463506
-0.2752898,2.9606907,2.7909017
0.08889703,2.5310667,3.240602
-0.059461627,2.8281708,2.545634
-0.32518104,2.530407,2.424138
0.62727445,3.2183053,3.4035678
0.5016162,3.347536,2.4555976
-0.08213929,2.5328045,3.860532
-0.090293,2.1150103,3.2837632
0.23967084,3.0197773,2.3138552
0.3873999,2.798963,2.8965106
0.7575745,3.0050004,3.0777037
0.42384082,2.8155046,3.2955825
0.012482173,3.4408178,3.156304
0.25351653,3.1219606,2.7203367
0.13883036,2.9166627,3.4455025
-0.93053865,2.9182384,2.8029733
0.16459666,2.3257442,2.9450033
-0.07423312,2.6985292,3.686129
-0.54944056,2.6397784,2.9775507
-0.5836367,2.7329872,1.9561064
0.43958822,3.0566092,2.426508
-0.4788533,2.500774,3.0642052
0.122645415,3.3885517,2.9804025
0.15006861,4.0223064,2.6876576
0.03461507,2.3372254,3.5348263
-0.4668464,3.0113957,2.1322038
-0.16346051,2.331318,2.579533
-0.1408305,3.2118866,3.0219307
-0.3891499,2.508977,3.1162598
0.74450713,3.892486,3.065848
-0.1869505,2.8223796,3.1418326
0.42152423,4.2718105,3.3045576
-1.0024619,2.3202617,2.7427895
-0.109628275,2.871657,3.3915648
-0.36240387,3.109351,3.1490712
-0.1805406,3.3609042,3.7700033
-0.21035415,2.893595,2.9704735
0.2962874,3.0528643,3.6126814
-0.65370375,3.879181,2.4884694
0.14331673,3.5895507,2.2521164
-0.21585892,3.4630196,3.1226177
-0.43343568,3.023999,2.9668133
-0.14678246,2.5118358,2.8881638
-0.06506762,2.7314715,3.250272
0.4249038,3.475802,3.1992915
0.17483225,2.653678,3.9031267
-0.47067943,3.4067159,2.2745361
-0.21804053,2.7449868,3.0779204
-0.93216985,3.268051,3.312454
0.1972786,2.8230076,2.8501883
0.09339579,2.6753798,4.0387177
-0.41724283,2.6362586,2.4792929
-0.35400867,3.58446,3.1641593
0.273824,3.404371,3.8605797
0.11140383,2.7038047,3.1079504
-0.22152205,2.5515747,3.2679236
0.39645383,2.8548045,3.0747645
-0.13242482,3.0085132,3.30862
0.6172321,3.2037039,2.9047925
0.8117588,3.151201,3.0903308
-0.16248617,3.1674001,3.5884085
-0.2897328,2.758156,4.458502
0.002872537,2.6874774,2.9476888
-0.053815685,3.4692252,1.9854531
-0.14826106,3.922584,3.6143284
-0.34072685,3.7864301,2.6944098
0.3470024,2.9525554,3.1887853
-0.03441008,3.2714808,3.0666215
-0.4717593,3.8338933,2.86969
-0.5298489,2.8322194,2.4563894
0.1429475,2.180813,2.8092196
0.9062602,3.5044165,3.058324
0.08385015,2.7191896,2.849644
-0.09057913,2.567941,3.0605154
0.68599063,3.1390269,3.2803774
0.7806095,2.9927235,2.7679884
-0.15361907,3.1757975,2.467484
-0.58221453,3.1193295,2.6950734
0.6888611,2.1937733,2.5631475
0.6924654,3.1352928,3.7709422
0.21868725,2.4225187,2.7446454
0.80753714,3.372983,2.463317
0.17832366,3.5253136,2.4684966
0.12385608,2.7581794,2.110046
0.019395448,1.784024,2.9013717
-0.023753857,2.7458847,3.2293098
-0.15189841,2.6101823,2.91935
-0.32515094,2.5746002,2.806189
0.31525713,2.0971253,2.917675
-0.46876913,3.2391217,3.0736322
-0.043218955,2.572544,2.0997977
0.013904541,2.9252255,3.5593371
-0.84277284,3.111461,3.3295124
0.5762659,3.253216,3.0027564
0.46299502,3.0333045,2.6512022
0.49759567,2.799979,2.723039
0.60674894,3.478354,2.880293
0.082275994,2.166422,2.6685295
-0.4215869,3.225377,3.676021
0.54953426,3.0999618,3.7247038
0.781313,2.3092263,2.6375866
0.16319886,2.802025,3.0740728
-0.12737231,2.4742193,2.6121712
0.45867234,2.73118,2.3277683
1.063815,3.3834465,2.5990024
0.008800073,2.9497504,3.4842458
-0.23475413,3.2667222,2.8205528
-0.056204837,3.026969,2.3936286
-0.40477118,3.3542073,3.0145013
-0.51364005,2.7934444,3.669631
0.0128249265,3.5569172,4.0352325
-0.30360675,3.169555,3.1034117
0.67851615,2.7317708,3.7306337
0.95865726,3.265021,2.2598357
-0.08418311,2.827248,1.9542506
-0.8314312,2.27274,3.1029499
0.037862074,3.1832345,3.5728652
0.24571791,2.614368,2.8287811
-0.1644358,2.8879225,2.5156102
0.64452785,2.6651988,2.8117428
-0.64226043,3.1185048,2.746208
0.44732764,2.259574,3.11184
0.11728851,3.334763,3.3668916
-0.67152095,2.5619237,2.4073677
-0.18498409,3.8428633,2.5989487
-0.16789705,3.2497284,3.0517714
0.805197,3.21132,3.105575
0.09793297,3.1899626,3.320999
0.025922148,2.8678012,3.2873025
-0.5909341,3.6214964,3.2268822
0.71294224,3.070564,3.1649666
-0.14337274,2.7779243,2.819747
-1.1073992,3.1235793,3.3542976
0.28431693,3.0886447,3.3500166
-0.24439633,2.7700272,2.352275
0.20392428,3.1063738,1.8842684
0.61584723,2.8513541,3.024028
-0.2374834,3.6594677,3.3674848
-0.7767814,2.624724,3.3278594
-0.34140489,2.7807703,2.3180153
1.2801936,2.9708543,3.027577
-0.03221397,3.013304,3.102136
-0.9967094,3.5040877,3.3119092
0.29923564,2.46798,2.6639147
-0.53733706,2.711386,4.4333715
0.04364461,2.1021266,3.4484172
1.2238747,3.018095,2.6345713
-0.61162907,2.9620392,3.1133718
-0.37115905,3.4869921,3.401749
0.22171223,2.9944801,2.838356
-0.08571877,3.1548762,3.518313
0.61879176,2.2323215,3.1050012
0.44692105,2.235118,3.2213192
-0.8549283,2.6749415,3.256971
-0.46818465,3.01423,3.0173967
-0.80910015,3.5291846,2.1379325
0.63065815,3.4264526,2.9971669
0.35089302,2.1692991,3.5728605
0.009301664,3.6260972,3.4777553
-0.0061474345,2.4017143,3.0952888
1.3021915,2.2456841,3.8633554
0.5681884,2.5401442,2.8794472
-0.12890068,1.9377239,3.2157376
-0.25284532,3.855534,2.3134074
0.95100766,2.4050944,2.3149054
-0.977576,2.5461538,3.2759583
-0.63355553,3.0437834,2.6088414
-0.05818752,2.3880181,2.1667206
-0.103704154,2.6519897,3.2190342
-0.05637594,2.046569,3.324371
0.21975708,3.169568,3.8439994
-0.4295278,3.8095534,3.1045866
0.93997264,2.5841026,4.098383
-0.18476878,3.4715188,2.91132
-0.31730482,3.5677829,2.4178207
0.18598256,2.4967687,2.457963
-0.75164235,2.8942697,3.428358
1.0769992,2.7322206,3.4808583
0.66428065,3.5115128,3.649126
-1.2889651,2.7511253,2.6312318
-0.8147022,2.5162776,3.0351932
-0.6780541,2.519418,2.5290933
0.25651607,3.35687,2.0805147
0.47731394,2.7324884,3.0881329
0.72916305,3.0058508,3.7776182
0.3621069,2.5730243,3.6872594
0.7106766,2.8656719,2.5351431
0.13179462,2.779794,2.8944647
-0.48349643,3.198942,3.01727
-0.5251366,2.7563791,3.3795092
-0.2532424,2.8946166,3.0040667
0.21592836,3.8338158,2.892548
1.0011485,2.812855,2.0914073
0.8367392,3.0677466,2.5953872
-0.934246,2.9964018,3.3505223
0.008295011,2.5928502,1.9927678
0.287208,3.6093004,2.921729
-0.8589408,2.3247576,3.2450366
-0.26770538,2.8910766,2.582375
-0.5657073,3.1702795,2.5196223
0.69902754,3.3265994,3.271765
-0.12871921,2.8881,3.2671547
0.81582516,2.2961328,4.177084
0.42226943,2.9979422,3.1160457
0.85017484,2.2280412,3.1312885
-0.13251764,2.8786297,2.44488
0.32198498,3.3434858,2.6974719
-0.35890082,2.9835553,3.009488
-0.34418646,3.1553257,3.4987342
-0.96255887,2.624006,2.8951871
0.17950861,2.4195735,3.3489647
0.23702288,2.7145443,2.68831
1.0067278,2.5594294,2.8415344
-0.75673175,3.5581431,3.6462855
-0.26897722,3.037787,2.7733822
-0.05265253,2.1764412,2.9885948
0.15085232,2.9331324,3.1726246
-0.7625929,2.5983179,2.4563696
0.3499894,3.2695754,3.4587154
-0.016565032,3.3046613,3.0026412
-0.12929782,3.4874606,3.2540095
0.6184197,1.8043456,3.5190268
0.62250525,2.9894981,3.193495
-0.15379952,3.2237828,2.598383
0.56105554,2.7087257,3.1795163
-0.13308957,2.9866624,2.3058646
-0.07677426,2.505705,2.60246
-0.5389499,2.6843863,3.2297156
0.2321645,3.520769,2.1663852
-0.01308409,2.8182464,3.2581408
0.31158862,2.7417645,3.899731
0.016509071,4.0223117,3.6725078
-0.52265006,2.9563444,3.3879972
0.19165827,2.2004647,4.240921
0.0087328395,2.8130918,2.6669922
-0.5413686,2.9069552,2.0389848
0.5444704,2.925106,2.6954222
-1.0314993,2.4680538,3.5121222
0.297471,3.320902,3.4335165
0.37876895,2.9415574,3.6188266
-0.092412524,2.8612797,2.4959455
0.111475356,2.5470507,2.215733
0.056964863,2.0444293,3.2482703
0.28885728,3.06675,3.7070549
-0.28917065,3.0274546,3.6363382
-0.19327202,2.782313,3.5177722
0.033704434,2.2118888,2.9821093
-0.16710426,3.157127,2.7702372
-0.2365662,2.3563848,2.3263226
-0.6555023,3.1911728,3.3894677
-0.82133156,3.333264,3.8188286
-0.53769,2.169905,3.5173829
-0.48098254,2.7794595,3.296238
0.22759567,3.372244,2.597614
0.06895522,2.680045,2.5463161
0.24566102,2.1421232,1.9263823
0.7949448,2.8051066,3.3133428
0.009651527,3.003474,2.9044647
1.0636885,3.0604072,2.3651757
-1.4275061,2.804764,3.4037573
-0.39236203,3.0175314,3.5447469
0.85816413,2.5884137,2.8660328
-0.6281349,3.2135997,3.1840496
-0.89851105,1.9572253,3.1183138
0.16268899,3.3912864,3.001792
0.33101612,3.4267735,2.9494529
0.29575828,3.2179043,3.060174
0.56581306,2.6734056,2.9963675
0.013434826,2.1811695,2.9349122
0.36317998,2.9671094,2.10426
-0.539495,3.2838936,3.3590298
0.26864344,2.430082,3.100039
-0.2979393,3.221767,3.3525963
-0.06506577,2.8308532,3.1190088
-0.114159,1.7038109,3.0365553
0.74537915,2.5843792,2.7634194
0.34954903,2.6039662,3.1684566
-0.86461854,2.7138042,2.1737616
-0.5556672,3.9348216,3.2285235
-0.12608184,2.5475383,3.1212146
-0.27681056,3.1085532,3.4827397
0.91980296,3.231919,2.3456166
1.0152943,3.3197992,4.1030493
-0.42460302,3.7848485,2.761438
0.7054678,3.8560233,2.934475
-0.11748911,3.3106332,2.1053681
0.1778971,2.9741044,3.6143198
-0.6231279,2.833465,3.4784098
0.30093667,3.9486568,3.313051
0.93256325,2.6690724,3.236895
0.41267055,3.0854611,2.5191298
0.8684411,2.158625,3.5043468
0.16820696,2.8516805,3.1065679
0.14702474,3.1496823,2.3996766
0.1792212,3.6946168,3.442952
-0.38812354,3.268367,3.950862
-0.34446853,2.7941432,3.13807
-0.16354375,2.5360198,4.0820436
-0.02815481,3.7114305,3.3925836
0.3097265,3.2184203,2.2278914
-0.61902344,2.2666996,3.0195024
0.8118745,2.6324577,2.473343
0.9358036,3.4743614,3.2930756
-0.64363265,2.915645,2.926191
-0.7021997,3.1398509,3.3337123
0.89603406,2.7844267,3.4192188
-0.15949625,2.822312,3.7119236
-0.35346377,3.3135047,3.0954747
-0.04596191,3.1006718,3.7041097
-0.09720507,3.7611945,3.0940998
-0.5232086,2.033103,2.826069
0.37082848,2.3646815,2.9212265
-0.4557637,2.9991608,3.323716
-0.39273757,3.0676258,2.6418188
-0.27130052,3.0646393,3.012663
1.0495199,2.5568833,3.7969608
-0.42617658,2.7948859,3.1502905
-0.31845912,2.4701273,2.3926787
-0.07218515,2.770305,3.141882
-0.2753222,2.9683616,3.0236862
-0.912829,3.5595825,2.3556895
-0.3154264,2.5926385,2.6621938
-0.1686506,2.695521,3.5770133
0.5481428,3.199224,2.3836763
1.0778444,2.946635,2.965336
0.37347066,2.1765633,3.2778962
0.77394813,3.9759083,2.3396368
0.27160498,2.5528138,3.452622
0.7372708,3.1102448,3.6771894
-0.337079,3.4238586,3.2015386
0.4514328,2.678945,3.3044233
-1.2408339,2.9983633,3.4654498
0.2528246,3.0459065,3.002467
0.2515941,3.5122085,2.7097185
-0.34280717,2.4507442,2.738449
-0.4983437,3.8051414,3.4844737
0.6142735,3.600541,2.8360245
-0.5654566,2.6051984,2.9121552
0.011360213,3.2565808,4.0874634
-0.1873938,2.937312,2.0764096
-0.5509982,3.2388747,2.0974603
-0.08776441,2.829706,3.9783154
0.28911078,2.9691434,3.2177503
-0.5996897,2.4900918,3.5355043
0.56218284,3.9055467,2.753754
0.022789605,3.5104706,3.7660494
-0.24387296,3.0701842,3.372033
0.18523863,2.5472875,2.7444947
-0.27683136,2.5762146,3.6905842
0.5640667,2.3982081,3.004336
-0.31817463,2.738853,3.114336
0.29849008,2.461468,3.670579
0.5739924,3.1496096,3.5263414
-0.41445395,3.663258,2.7623615
-0.15548727,3.120072,2.8711426
-0.20844328,3.8459659,3.6529653
0.54702955,2.4052196,3.4117594
0.4287082,2.6979156,2.7746384
0.034380507,2.5731769,2.7245913
-0.15627052,2.325137,2.9518178
-0.057207845,2.8411727,3.3250518
0.30626675,2.7773964,2.7295318
-0.015074435,3.4992971,2.7339315
-0.047218934,3.4204328,3.178672
-0.5743955,3.2480502,3.342653
-0.8803191,3.6965208,3.0112972
0.037381783,2.9396162,3.9508502
0.24898426,2.9105713,3.85329
-0.720734,2.4335623,2.8197894
-0.87539965,3.1044464,2.7809196
0.06806326,3.2684557,2.4598951
0.19705889,2.9269729,3.329752
-0.679046,3.424638,3.1755638
-0.40770411,2.7304044,2.224493
0.3599726,1.7282798,3.1573882
-0.59144443,3.1858695,2.9908354
0.05460402,2.746085,2.8649971
0.8407428,2.4168646,2.3783116
-0.5127731,2.355249,3.0350323
0.09950116,3.7193713,2.928196
-0.49401218,2.9363163,3.2031
0.13722377,3.6712132,3.917396
-0.22879943,3.2192938,2.4818745
-0.27666438,2.8180714,3.0454247
0.68350434,2.989708,3.2679286
-0.7103765,2.50058,2.0010235
1.0924101,4.067037,2.551802
0.05992772,3.5289001,2.8294501
-0.24844585,2.135591,3.052495
-0.42596754,2.2023878,3.1488867
-0.9688122,3.1868865,3.326714
0.47027856,2.748885,2.2558794
-0.22172552,3.2952397,2.9327993
0.5197513,3.3280835,2.7939987
1.1960226,2.9450672,2.6730509
-0.26514375,3.1396759,2.8139243
0.63234353,3.7555828,2.6365252
0.065618195,2.939648,2.4039729
0.27375782,2.5804465,2.853287
0.017391402,3.0794506,2.4078944
0.16788223,2.994919,3.5716233
0.3825389,3.5947232,2.920201
-0.36332214,3.4964674,1.7915455
-0.04772484,3.8886664,4.0062685
-0.27984446,3.1636457,3.5377316
0.3558981,2.9510741,3.0844023
0.06889957,2.9252744,3.1545532
-0.23004444,3.3071637,2.7216794
-0.53985286,2.6029196,2.9157095
0.75566643,3.6174529,3.6436017
0.8684167,3.8558102,2.5213184
-0.38361678,2.5448422,2.9531708
0.78973365,3.6110072,2.356408
-0.49031544,3.5721714,3.113312
0.034193162,2.7182212,2.266063
0.2674948,2.8707519,3.5040889
0.23231,2.882955,3.1532288
-0.31465986,2.2420332,2.7962346
-1.126672,3.8188095,3.4828894
0.809396,2.019148,3.1141467
-0.922515,3.3238206,3.6196146
0.042675268,2.6698098,2.4744856
-0.33423343,2.579142,2.939092
-0.08261808,2.9152763,1.9121958
-0.7579509,2.4575968,2.3115463
0.16134405,2.5458724,2.1400788
0.86295044,1.944719,3.0971575
1.0299616,3.649795,3.0948443
0.19508263,3.307638,2.5996242
0.059659116,2.6735907,3.6563067
0.6177845,2.3172011,3.126958
0.36422452,2.5659246,1.8494015
0.16060503,2.626205,3.98114
0.25458378,2.703775,4.127695
0.21348545,2.479963,3.3670297
-0.39528438,3.2271807,2.8564582
0.36842874,3.86512,2.826117
-0.18243486,3.02704,3.6943367
-0.69237316,2.5399864,2.6396062
0.3345257,2.6026866,3.987908
0.99571407,3.4630394,3.0893145
0.5607352,3.3589802,3.0494852
0.6285494,3.6934566,3.9070604
-0.22757474,2.683689,3.6786776
0.015658738,3.5896988,3.3099794
0.7195474,3.4164472,1.7823546
-0.123454906,4.005337,3.2814171
0.84553444,4.315587,2.4017148
0.036900233,2.4270403,2.8997927
0.34517777,2.86627,3.6543798
-0.035422772,2.8450816,3.1880035
0.14846575,2.3862846,2.362095
0.19423826,4.4298344,2.3751018
-0.283462,3.5840807,3.7311895
-0.3663626,2.581843,2.875866
-0.25270736,2.50229,2.646608
0.042962484,3.5267763,2.968533
-0.29642832,3.6716604,2.31597
1.1244619,3.3371892,4.009593
0.98493993,2.7966545,3.1226947
-1.1300079,3.4530144,2.161683
0.9529511,3.076906,2.746019
0.35929543,3.3804,2.7614832
-0.36360076,3.4476042,3.2996213
-0.45298526,3.9344363,2.7296143
-0.2217382,2.600236,2.4444902
-0.14280719,2.8601763,3.5006022
-0.2172325,3.510023,3.5760145
0.13068107,3.6639314,2.8090866
0.5774902,3.1797245,3.134908
-0.94282967,2.8970966,2.1509192
0.5764717,3.8004878,2.872744
-0.19498408,3.7925763,2.9832888
0.23625392,3.5481956,2.215895
-0.26054952,1.9574904,2.1293578
-0.49159056,3.2899334,2.450281
0.65303546,3.3869364,2.6768808
-1.2176945,3.8438935,3.1198294
-0.32027635,2.7556763,2.824903
0.23321757,2.650832,2.9676692
0.3432432,3.0429323,3.0505335
0.36073282,2.7941756,2.7400122
-0.78360105,2.9416816,3.1249473
-0.9503104,2.115324,3.705572
-0.0728258,2.9310496,2.9233918
-1.0090257,2.827449,3.5669627
-0.59720194,3.2182672,2.530918
-0.72044116,2.2077045,2.657474
-0.33121315,2.6860652,2.0768404
0.79477894,2.0872862,3.441191
0.37727383,3.7236333,2.7762036
0.41490588,2.6540914,3.3652737
-0.12995471,3.656021,2.9194832
0.16258226,3.2793806,2.8489833
0.50853777,3.0650668,2.9383676
-0.543138,3.8596947,3.1015089
0.018642098,3.0011172,3.444161
-0.04654744,2.9796154,3.3671796
-0.9012858,1.6969466,2.5623198
0.23910801,3.426142,3.4864979
-0.5154611,2.4659803,2.9306767
0.47318143,2.3464615,3.5889952
0.4618985,3.3103845,2.4932764
-0.33715516,3.8824592,3.0740786
-0.2515992,2.1733506,2.7063131
-0.75727344,3.203316,2.7481756
1.0378748,2.8133993,3.1188846
-0.5528604,2.4828188,2.7343185
-0.08375144,2.5983274,2.9492497
0.19776335,2.4484768,3.532681
-1.0510769,3.9181569,3.4791112
-0.085902125,2.8903668,3.4296124
0.7096392,3.1085463,3.5660002
0.02496419,2.7129645,3.22948
-0.4971583,3.2416859,2.509752
-0.46114522,3.6075006,3.5752888
-0.35667562,2.2244432,2.7967265
-0.28174046,2.328811,3.144571
0.53318244,2.335342,3.3655093
-0.5675962,2.8571784,2.2602243
0.3785588,3.9256287,3.2491274
0.076178595,3.1362722,3.0506363
0.76629996,2.5332055,3.0582852
-0.6034025,3.1534302,3.3989794
-0.48474556,2.999428,3.383052
0.1652784,3.2568939,2.1013913
-0.10040148,3.4309552,2.9379668
0.8726881,2.04951,2.4977953
-0.37941483,3.6008906,1.6086699
0.8742881,2.6834664,3.484296
0.50140804,2.534837,3.8040304
0.2044587,3.6621237,3.4008894
0.2123959,2.8632255,2.723309
-0.39135036,2.1888008,2.938549
0.92402256,2.6389136,2.6848528
-0.05215416,2.5368671,2.1728644
-0.37437427,3.7071006,2.9369516
0.049208816,2.6188083,3.2813945
-0.9609569,2.1810992,3.3165786
-0.6275875,2.2712498,2.8781533
0.36299616,3.2994015,2.6562462
-0.4639812,2.5543885,2.786729
0.6805914,3.432539,2.177547
0.6744115,2.7827325,3.132498
-0.5127862,3.0254276,3.066477
-0.4807323,3.0709975,2.1592035
-0.032654427,2.9265654,2.7910564
-0.09097136,2.9790597,3.3600638
-0.496488,2.6926687,2.132378
-0.08774481,2.2788653,2.3843906
-0.33927813,3.2488387,2.5889046
-0.54045683,3.347896,2.3945649
0.321267,2.5973938,3.1618805
-0.90182656,2.5894856,2.5095282
0.5890168,3.5077775,2.4202938
0.9862097,1.9742879,2.7010102
0.9608832,2.1635246,2.6568997
0.39854804,3.39956,3.730577
-0.28564745,3.1568823,1.9474105
0.53214675,2.406803,3.4810922
0.5354826,2.1005678,2.4622955
0.03978872,3.562787,2.9627116
-0.66576153,2.7292507,2.9526262
0.25323564,2.7916977,3.498067
-0.6963375,1.8726618,2.7023149
0.012010163,3.6994295,3.7993145
0.7843016,3.2298055,2.9174404
-0.35264915,3.0324068,2.5873857
0.0662137,3.1447244,3.2036808
-0.5289148,3.2808096,3.254428
0.08162935,1.7682742,3.131802
-0.38786128,2.19218,3.4586487
-0.22217372,3.7577767,2.3356957
-0.031639513,3.233197,2.4660249
-0.5180444,3.8431168,2.4360988
-0.20342666,3.0042622,3.4610715
0.26608923,2.8353374,2.7418756
0.20088686,1.9662648,2.920382
-0.53652203,2.9981544,2.5111063
-0.8993945,3.0043604,2.9119377
1.1456428,2.4820511,2.4861684
0.21368133,3.1887882,3.193615
0.39442477,2.7742984,3.7045054
-0.1689625,3.2411,1.8298166
-0.11409283,2.8482294,3.3706682
0.02247056,2.664627,2.8160036
-0.51531756,3.065513,2.8073468
-0.57057315,2.763249,3.01379
-0.3232544,2.9516397,3.1240025
0.19248201,2.988079,2.8337157
0.25806212,2.1189735,2.5155845
-0.16388276,3.1819022,2.8099976
-0.59380084,2.1000528,3.5870695
-0.32340124,2.6548495,2.9503295
-0.34501177,3.379322,2.1118774
-0.32468915,2.8959756,2.9572551
-0.5375203,3.2987177,3.366874
0.18132305,3.4566755,3.1398978
0.27120605,3.4073586,2.6040163
0.72608596,3.6939323,3.3218389
-0.07397252,2.4033306,2.1733022
-0.09877634,1.6484746,3.2696757
-0.14024433,3.552153,3.0895958
0.88865453,2.8605871,3.324398
-0.67913043,3.5608683,2.815231
1.0539563,2.568458,3.310718
-0.16663891,3.563562,2.7868423
0.40306205,3.8346722,2.6844125
0.8780957,3.4019032,2.816706
-0.52679586,3.3673406,1.9653561
0.031969547,3.4387918,3.163216
-0.23727906,3.1598737,2.6945872
1.0373306,2.9726744,3.2038748
-0.63281703,3.0181599,3.4211001
0.23407228,2.8102815,2.4876423
0.030149449,2.186333,2.9763112
0.32755804,2.4311514,2.4726655
-0.59113306,3.7861862,2.7442617
0.56664634,3.5181246,2.4393215
-0.47844702,2.7342684,2.5149674
0.14121836,3.8281775,3.1782236
-0.61333996,2.8524995,3.7034616
0.2944598,1.8672752,2.7799888
-0.27097535,4.241784,3.3950698
-0.32616037,2.9460971,4.3445024
-0.10839302,2.5267785,2.0638223
-0.009550799,2.709841,2.9647858
0.77620566,2.7216716,2.6213164
-0.3950901,2.6567583,3.375001
0.038081195,2.8150964,2.2316906
-0.909654,3.1612926,3.0382924
0.20622373,3.48107,3.0933657
-0.5922166,2.140518,3.1351724
-0.6335749,2.8913207,3.1359088
-0.45092526,3.2390757,3.168457
0.1807929,2.826258,1.740408
0.9784753,3.4628437,3.0842953
-0.3161829,2.8625507,3.2603345
-0.48194727,1.9202318,3.3488944
-0.33350578,3.0680883,2.8094528
-1.270209,2.230568,3.791725
-0.09379472,3.1017501,2.865445
-0.30767635,3.4781473,2.8523824
0.30667692,2.9194813,3.161366
-0.1847925,3.292478,2.7051764
-0.031740975,2.7095804,3.6338317
0.2574437,3.4358454,2.741762
-0.81951404,2.9874933,2.4947522
-0.5707405,3.9162307,2.167247
-0.058279995,2.3836868,3.5500915
0.06435821,2.5498552,3.1468894
0.26145825,1.4984152,2.8008862
0.11005299,3.31862,2.8366568
0.80754143,3.3971035,2.852534
-0.59112,3.1068118,3.0704596
-0.15585437,2.8880482,2.6144285
-0.45902067,3.2596622,2.359284
0.12783888,2.4725947,1.9741073
1.5951757,3.0055468,2.214744
-0.3571329,3.2279406,2.5113266
-0.2625465,3.8615234,3.839344
0.26617005,3.233323,4.4295783
-0.85032445,2.702952,2.9695444
0.051369943,3.8256974,2.5112333
0.50635,2.3338008,3.1610026
0.20806195,3.6508255,3.610146
0.6475635,3.1835167,2.8818455
-0.352864,2.8283646,2.4776227
0.29090932,2.946391,3.4343438
-0.49074194,3.4209256,2.4379132
-0.43522298,3.4940917,2.606709
0.4870529,3.157236,3.3200533
-0.06394252,1.8020573,2.9358208
-0.47767124,3.5169501,3.5617008
-0.28390774,2.2161028,2.7049577
-0.84666747,2.202905,2.7505052
-0.92822385,2.7858558,2.8512383
-0.4913031,3.604028,2.4848495
0.064100415,3.5029724,2.4294004
0.82294345,2.3936582,3.4051986
1.1521552,3.1641855,2.9200525
0.47675875,2.472805,3.5259237
0.30066696,3.388361,3.6416516
-0.76046056,4.027104,3.5406692
-0.3574306,3.1533515,3.7764196
-0.53877133,2.7620943,3.4979255
-0.29009885,3.2483783,2.6500196
-0.47871605,3.4857116,3.6250663
0.39446905,2.5560231,2.8424869
0.56701154,2.2464316,3.328967
-0.16443084,3.1799514,3.6029532
-0.37838417,4.4915533,2.5911167
-0.116649434,2.6211576,2.6790805
-0.5536702,3.4281101,2.3187706
-0.024753334,3.5390983,2.2103996
-0.39465514,3.232754,2.85751
0.20016673,4.229154,3.1141818
-0.09129411,3.5509763,2.1565604
-0.6557158,2.0947547,2.4932113
0.49508312,3.6275482,2.5821908
1.0728059,2.5445697,3.2489564
0.52809346,2.3232136,3.3618846
0.41698745,2.876015,2.6159902
0.9917787,1.821632,3.4314563
-0.004073725,3.6942353,2.7891793
0.49193886,2.5094283,3.4978635
-0.45505083,2.3680513,2.7120261
-0.41061652,2.6306887,2.7657185
0.46892136,3.3084219,4.5141883
0.23707935,3.8176305,3.2567163
-0.38976514,3.3155878,2.9609787
-1.1551088,3.077737,3.063223
0.03353301,3.1531734,3.62349
-0.7437092,2.370565,2.7714305
-1.2259777,2.8073554,3.6364875
0.43495595,2.6790977,2.8556952
-0.11398181,3.306706,3.6012316
0.44955572,3.7342303,3.8929987
-0.77931803,3.3450809,2.9741096
0.72088814,2.4296775,2.6741495
0.37219465,2.9755244,3.3443334
0.31412986,3.3328557,3.2834213
-0.36517188,1.816674,3.9655495
0.20306215,2.701217,1.6778697
-0.008067853,3.511656,2.5244133
-0.39477962,2.263169,2.4293709
-0.875134,1.7513993,2.196957
-0.82312053,3.2862208,3.0036013
0.21697715,2.8902617,2.725717
-0.29333904,2.7372315,2.9445856
0.43130568,3.9336941,3.0475354
0.35736743,3.572817,2.8969414
0.09996232,2.6835418,2.521074
0.011243243,3.7250788,3.5160265
0.24712172,2.7453337,2.9209564
0.23034829,3.0758076,3.6900587
-0.65609443,2.93769,2.400772
-0.29522622,3.3753195,3.3360412
0.007372651,2.6914105,2.6709812
-0.72947353,2.915913,2.9450934
-0.37013948,3.1650014,3.5649633
1.0254892,3.1523435,3.1886418
0.49892557,2.6606448,2.3727808
0.29869226,2.2590337,3.9926183
-0.88944036,3.1537178,2.8716698
-0.39148152,3.286778,2.3841705
-0.546698,3.1920607,3.5799592
-0.6867811,1.7852739,3.1798873
-0.0032855084,2.4154165,2.8997788
-0.30066067,3.1165097,4.147471
0.071369044,3.7025747,2.9052813
-0.030697513,2.880358,3.013811
0.16751741,3.4364285,2.2927256
-0.5455474,3.0597785,2.5097022
0.48899192,4.3053746,3.023411
0.8639892,2.9360106,2.1576478
-0.58790207,3.48031,3.768702
-0.035671756,2.5843756,2.7590709
-0.22661433,3.2080457,2.218094
0.20182323,1.8818817,2.3679676
0.11791116,2.9053156,2.4961064
0.061459053,3.1037517,3.4836566
-0.52273107,2.3095694,3.1905823
0.8853061,2.9668767,2.298742
-0.19120957,2.494934,2.1581817
-0.5650042,2.9674103,2.870529
0.48087257,3.919656,2.7426028
-0.109784484,2.982085,2.9159427
-0.43238965,3.385984,2.6786914
-0.6922965,3.5068922,2.3652453
-0.41530797,3.3988864,3.7014382
-0.46460757,2.84054,2.7946022
0.46222395,3.7399714,3.2035775
0.23882577,3.1142786,2.498351
-0.4138574,3.179884,2.310919
0.17496063,2.2459207,2.8770807
-0.32476082,3.1352873,3.7073338
-0.10735832,3.1142166,3.2564983
0.030564522,3.4029553,3.5705147
0.71031326,3.3212647,1.7766795
0.69569427,2.7837477,3.4144783
-0.42587972,3.60193,3.6596136
0.518459,2.0249991,2.285184
-0.12718967,2.24259,3.188703
0.29689482,3.2828732,2.6235328
0.36079612,3.3405194,4.279212
0.4595988,2.2960658,2.632297
0.37487647,2.6989667,2.9132612
0.5690917,2.9947617,3.4008334
0.86930907,4.4730344,3.262978
0.043526344,3.4203627,2.4019113
-0.7417459,2.1156056,2.4424024
1.1373245,2.1705272,3.4327095
1.1291189,3.1096237,3.0316784
0.05915089,2.495176,2.532587
0.18548818,3.717298,4.2928853
-0.41864818,2.8771331,4.0511208
0.4657447,2.6624563,2.2010205
0.3846563,3.1077597,3.138836
0.37651238,2.8968022,3.6182861
0.44035444,3.4295528,2.953569
-0.12166349,2.6230366,2.6128082
0.5504123,2.7529867,3.1754396
0.1778042,3.3438637,2.6531386
-1.0294523,2.3453798,3.3808832
-0.028600127,3.8611553,2.9940379
-0.037676685,3.0971272,2.8752074
-0.36097717,2.8383863,3.0935853
-0.12905236,3.1526186,3.3082423
-0.56179106,2.218993,3.5161145
-0.6363645,3.4861934,3.3054564
0.23097241,2.6155071,1.4258124
-0.38385582,4.0237184,3.0583758
-0.22448617,3.6367135,2.6488829
-0.6191126,2.604707,3.678612
-0.78103226,3.6396706,2.7311
-0.5810052,3.487032,3.0560935
0.06997675,2.9339395,3.3671942
0.044209708,4.0800195,1.8324159
0.24427843,3.1839886,3.3869228
-0.645069,2.9027894,2.9631777
0.39682665,2.891411,2.3741202
-0.1128566,3.0014634,2.4842396
0.7967213,3.4068422,2.1128194
-0.3997242,2.8935072,4.056507
-0.055658083,2.6079674,3.3974938
0.37175083,2.804087,2.5676434
-0.3293051,2.4644582,3.2496798
0.12332049,3.0605917,3.6034636
0.086430274,4.2711334,3.417927
0.6120269,2.7669466,3.3408918
0.5115709,1.7822461,3.2014856
0.59577847,3.0991645,2.999324
-0.5608915,2.9747057,2.2557228
0.2759593,2.1114693,2.4821262
-0.06682557,2.5738413,3.1515698
0.7862015,3.0549455,2.9513528
1.719474,2.8206933,2.85305
-0.5053611,2.5654144,2.5472975
0.686837,3.5557654,3.3194165
-0.41461793,3.5676067,3.264879
-0.020431325,3.5156455,3.8393216
0.17146102,2.9759161,2.3863354
-1.1938236,2.7543762,2.8281364
0.79458934,2.820758,3.2871215
0.035068214,3.054222,3.9505382
-1.0785364,1.9532176,2.6041803
-0.40348563,2.7858224,2.0268908
-0.34100917,2.1180692,2.617321
0.35831752,2.8147147,3.4109278
-0.110504046,3.756648,3.453832
-0.77276677,2.7884643,3.0287607
0.5512324,3.1092708,2.3069308
-0.028990688,2.798967,2.8159442
-0.13203788,3.8508177,2.9111207
-0.64535487,2.5305293,3.282636
0.2647951,3.1385696,2.1377501
-0.82421666,2.5404274,2.7496145
0.02147765,3.116147,2.1080236
-0.13249321,3.4289355,2.971917
0.86456764,2.2162516,3.0491452
-1.2066742,2.9411016,3.5679073
-0.7554558,2.5905712,3.066194
0.7095676,3.040146,3.0037496
-0.36777142,2.6543646,3.3265295
-0.34367445,3.3359258,2.4005246
-0.09075033,2.8534894,3.2598271
-1.2058797,3.9246087,2.6964552
-0.9661047,3.420894,2.9592652
-0.43485677,2.487944,3.3221533
0.02336267,3.7001135,2.7502177
0.41764033,3.3581939,3.0514712
0.3012349,2.6288106,3.2793183
-0.16482972,3.2584012,3.134794
-0.09690965,2.857194,2.537736
-0.18685772,2.707789,2.6096091
0.4202715,2.828862,2.4440374
0.20126252,3.832731,3.5074658
1.0904567,3.0473678,2.7978365
0.13091047,4.1756334,3.9339275
-0.25766796,2.4855273,3.3185835
-0.9570096,2.8564382,3.28815
0.2915631,4.356676,3.2165499
-0.41021588,2.3272624,3.2314014
0.52002084,2.2834682,2.9567099
1.2539171,2.9577935,2.6963558
-0.80885,3.3764007,2.8376048
-0.55668086,2.8196228,3.449829
-0.011279492,2.8930442,2.9727702
0.7736617,2.971516,3.0108874
0.19052449,2.8922503,2.935735
0.02894731,2.8019412,2.9328947
0.96717024,2.4956229,2.167904
-0.36236772,2.4944692,2.1036143
-0.1362861,3.391056,3.030291
-0.13305877,2.6735268,3.776054
-0.83354074,3.7962554,2.878556
-0.8044944,3.253898,2.610059
-0.3968198,3.1093252,2.6103697
-0.652422,3.378173,2.3682246
0.19640586,2.1033945,3.1880891
0.18907034,3.4310741,3.3599117
0.38419208,3.0746706,2.9150593
-0.015686752,2.4766338,2.3908322
0.009055894,3.313214,3.47579
-1.0560888,3.7239122,2.8748875
0.79148924,2.5019608,2.5063365
-0.089957885,2.5626717,3.5515566
0.7675737,1.6739408,3.1289966
0.46662235,3.0270905,3.1608286
-0.08377308,3.3704584,2.4430676
0.9525028,3.7905285,3.4828107
-0.38403934,2.591932,2.6386724
-0.70171297,2.148825,2.4185715
0.26080328,3.2078698,2.8681881
-0.12894212,2.0477986,2.916041
0.80406916,3.7057772,2.9713957
1.3933678,2.9798183,2.454469
-0.19160396,2.3160205,2.381487
-0.0475391,3.6015499,2.2365904
-0.74311614,2.4089859,2.6984243
-0.20155008,2.850027,3.8821995
-0.17106307,3.061688,3.1750665
-0.27909327,3.553681,3.4328156
-0.4329126,2.9073062,3.272268
-0.46007332,4.0119705,3.381034
-0.59051037,3.0094044,3.6410215
-0.6082499,2.0158002,3.3133738
-0.042642634,2.8424625,4.182287
0.40198204,3.4759579,3.9940777
-1.2692198,2.100638,2.4178762
-0.05476996,2.5898347,2.696722
-0.09473892,3.5944285,3.847613
-0.36849555,2.646686,2.670656
0.30038524,2.435546,3.4918656
-0.5752418,3.2583587,2.6965728
-0.51081663,3.4888744,3.3495471
-0.09697169,2.7723038,3.028772
-0.47102448,2.7700117,2.9728742
0.32683676,3.153025,3.2770367
0.124722354,3.3347702,2.344881
-0.06154502,2.1427433,2.6677186
0.52112794,2.6467187,2.7600935
-0.48225543,3.2953334,2.7505672
-0.15558565,2.5804155,3.2985106
-0.27137265,3.0936725,2.4231687
0.01283148,3.6599717,3.1980872
-0.1616842,3.7065513,2.601252
-0.6002435,3.000232,2.6026926
0.29571217,2.981147,3.2164123
0.09666968,2.5539846,2.983938
-0.467913,3.1828804,2.0769784
0.17434147,3.3214447,3.0736032
0.062044553,3.0280058,2.5804565
-0.66181725,2.6747346,3.744277
0.30075225,3.8971965,2.881544
0.765929,3.4315627,2.5407503
0.027805185,2.6411352,2.9907024
-0.40000764,3.7669916,2.9594715
-0.3628807,1.7054496,3.61771
-0.92736447,2.9849985,3.015427
0.39699325,2.925117,3.5946686
-0.011176995,3.7689865,3.6261647
0.3215036,3.3950143,3.4927838
0.19556026,3.6112094,3.1340868
-0.5473037,2.8954086,3.133784
-0.20539905,3.0312054,3.5819411
-0.0890425,4.0828395,4.215529
0.38327655,3.5903034,3.0026345
0.16198531,2.5100887,2.4347596
0.19182165,2.6753619,3.0638964
0.4200789,3.5190768,3.050929
-1.163078,2.7792048,3.6980813
-0.6429922,3.25647,3.142878
0.12038868,2.3166168,2.8924704
-0.34138373,3.1049812,4.0044928
-0.11452402,3.095704,3.8467433
-0.37287393,2.5733566,2.6602647
0.1333192,2.8398156,2.8414383
-0.35479718,2.8529348,2.5524316
0.24421522,2.3845315,3.1892076
0.024071196,2.3860087,3.6711705
-0.49175885,2.961529,2.5904624
-0.28206268,2.5022187,2.885739
-0.51906544,2.9684854,2.378119
0.23281847,3.1706336,2.4259837
-0.5285415,2.9857252,3.2651324
0.24861743,1.8579692,3.257972
0.6211588,3.1933513,2.5511434
-0.06813062,3.174016,3.0117505
0.24949719,3.9193401,3.5116525
0.039656363,2.134448,3.0627244
-0.13294782,3.150905,3.049548
0.10275756,3.3566177,3.2538702
-0.20686062,3.34117,3.2834647
0.15059169,3.2710512,3.1160667
-0.57332265,3.5895603,3.555935
0.7989717,2.906561,3.6623297
0.41788185,2.72406,2.6028905
0.092529155,3.2353613,2.7692063
-0.54739916,2.9726753,1.781025
-0.14631099,3.7279193,3.9981453
1.2168199,3.458089,2.8053958
0.3206884,2.8110185,3.5900056
0.7843467,2.9842281,2.6401234
0.3021474,2.0383267,2.2948332
-0.37388572,2.9919412,2.7810462
-0.1587651,2.9339924,2.9521894
0.21224108,3.5316317,2.5103474
-0.16802868,3.6860766,2.4187818
-1.1040431,2.6040726,3.0929902
0.15242566,3.7857323,3.2924554
0.26503262,2.2007837,2.2093115
-0.051482446,2.8091686,3.1669102
-0.25830218,2.9883256,3.900433
0.21106227,3.6626775,2.6997962
-0.19914775,3.0526147,2.327582
-0.31365445,2.2548714,3.4054825
-0.051486418,2.705585,2.4086614
0.31390035,2.7163484,3.6986349
-0.41152948,3.5017738,4.258174
0.007872033,2.7568548,3.8408961
-0.098698474,3.106094,2.6258736
-1.421853,3.039377,3.380459
-0.2522176,3.3842304,3.662195
-0.33910558,2.9015763,3.1528099
0.88826734,3.1893935,3.0036438
-0.38556418,3.6570349,3.6999807
-0.4134743,2.7975845,2.8014548
-0.8644039,3.2318234,2.2856662
0.41489732,3.0739079,3.5323164
0.5341589,2.7121544,3.3202589
0.028307691,3.1170602,2.9907923
0.4943845,3.0829372,2.8726823
-0.05874861,2.9448733,2.5698533
-0.36368614,3.1077118,2.7085433
-0.32591537,3.6880286,3.1090071
0.03302149,2.2032373,3.2636125
0.031614546,3.0768473,2.720199
0.76578933,3.0585113,2.6484523
-0.058143713,2.6578014,3.3423038
0.47424945,2.9052854,3.892693
0.37455723,3.8610075,2.8301558
0.09858119,3.3257308,2.6479135
0.27860555,3.5422974,2.9205172
0.10183215,3.6467183,2.0634475
0.14754423,2.9963527,2.9182198
0.21262048,3.2394207,2.7068894
-0.5342843,3.0555644,3.604703
1.3378155,3.9438152,3.189071
0.45237225,2.767511,2.9183035
0.7954794,3.4597232,2.6309624
0.54342204,3.3281515,3.3661
0.41066748,2.8713262,2.9087284
0.34548518,3.2279494,2.7467728
-0.45744547,2.9716606,2.6549497
-0.12974806,2.8612988,3.1418562
-0.15463628,2.7406049,2.658316
-0.8150808,3.7821507,3.725127
-0.05204449,2.8192806,2.5613976
-0.20484614,3.1934862,2.4727874
-0.055749267,3.3165686,3.1178086
-0.68074185,2.7134852,2.170776
-0.4170985,3.022371,2.7153022
-0.63498104,3.850865,3.5761266
-0.83665854,2.6230707,2.8410664
-0.83513546,2.6128783,2.0558739
-0.24386898,2.4107187,3.3047583
0.3571989,2.2599683,2.5385878
-0.27461046,3.5404627,3.0839696
-0.37260532,3.0994003,3.240622
-0.10690698,4.1042285,3.2071493
0.26520917,2.4526634,3.7313073
-0.38389143,2.622881,2.5946052
0.32636118,3.548737,3.705263
-0.21939768,2.339518,3.3552084
-0.589889,2.2372346,3.8416605
0.45380235,3.4174104,2.7645748
-0.46253395,3.0843952,2.8194926
0.14992248,2.9810495,2.795976
-0.9078798,2.4543083,3.111708
-1.0610558,2.5438511,2.0160902
0.4493571,3.5387602,3.3363209
-0.13642244,3.33781,2.2791066
0.0018251867,3.0106008,2.5113602
-0.5736312,3.1035156,2.6168687
-0.32089767,3.2505622,3.3198688
-0.20572537,3.0536582,2.7938673
0.2287653,3.4727821,3.3504124
-0.22670406,2.328871,2.6080399
0.16869475,3.8047688,2.7992039
0.9356789,2.6784081,3.0768163
-0.5685937,3.5452685,2.8587441
0.7154821,3.9266245,1.9718456
-0.5212901,2.9879348,2.5914164
0.58610153,1.9730736,3.798516
-0.56890833,2.1074705,2.822471
0.47735524,3.595988,2.6700752
-0.09781119,3.2924402,2.9786043
-0.16277562,2.8345466,3.1007469
0.10663096,2.965806,3.6396873
-0.65154845,2.8287218,2.6407053
0.0652144,2.836235,2.7913003
-0.21627316,3.451504,3.5128791
-0.99437773,2.7207444,2.892551
-0.36922663,2.1672816,3.0875173
0.041521523,2.9923847,2.6670582
0.15277304,2.9365523,2.4753633
0.12062539,4.103101,3.3753603
-0.30033064,2.9529073,2.8868651
0.16566423,3.631367,3.0203414
-0.7691619,3.1121616,2.7402174
0.34579548,3.2325406,2.4568925
0.6723323,3.0778878,2.4160776
0.18552603,3.109049,3.245216
0.36089098,3.057375,2.495485
-0.3983051,4.1613154,2.45852
-0.22999533,3.5262027,3.2198277
-0.40506744,2.5222545,3.5999596
0.09136952,3.581073,3.4443243
0.43249553,3.0341592,3.8349104
-0.17378253,3.0597975,2.5498755
-0.519367,2.288476,3.2487109
-0.7547308,2.321781,3.7204757
0.42776814,1.7774944,4.109893
0.84312665,3.5787263,3.9530869
0.17739709,2.625311,3.00785
-0.4392644,2.4589934,3.1659873
-0.057323154,2.9425468,3.3287494
0.039581392,3.7790718,2.8369873
-0.5154096,2.314215,2.86891
-0.74021876,2.8500743,3.2306924
-0.35825667,2.202806,3.003854
0.071152866,3.7580137,1.9568559
0.5749193,2.5428388,1.9253628
-0.6127135,3.4512508,3.9851866
0.3210386,2.650125,3.5754223
-0.43928775,3.0401974,3.3836803
0.17542598,2.9111867,2.936433
-0.5649214,3.5986266,2.2719193
0.362692,2.8486774,2.5142949
0.2992279,2.2935357,3.710948
0.017999083,3.7354944,3.2902842
0.30855086,2.547619,3.1403575
-0.041178554,3.2366128,4.0073037
-0.3157814,2.882766,3.6317914
0.028154232,2.9030397,2.9673367
-0.4524128,2.4727259,2.0610402
0.9375554,3.7375448,2.6164222
-0.16655006,3.972652,3.662888
-0.121823825,2.4415295,3.150798
-0.31985822,2.1559591,3.4171567
-0.7402632,3.4592927,3.1985474
0.5382218,3.8197477,2.9442606
0.9677513,3.5751069,3.7980042
0.26614577,3.2037573,3.5185964
0.19704105,3.4144208,2.892665
-0.042421043,2.418117,2.8526244
-0.47734046,2.618854,2.748565
0.7285207,2.406797,3.0857606
-0.1621183,3.0721822,2.8253875
0.14416301,3.346877,3.001985
-0.0023505115,2.9357913,2.9078119
0.9127243,2.707793,2.4832394
0.572966,2.9169025,3.2102928
0.52376753,1.8135844,2.948798
-0.17807578,3.0124838,3.1457124
0.1851952,3.6424627,3.1151886
0.50029546,2.9391155,3.2852426
-0.5573702,3.2199404,2.4538293
0.50078773,2.4951596,3.078147
1.4532522,2.8149889,2.6298153
0.009387863,2.7616425,3.1911545
-0.1799551,3.4561043,3.2109878
-0.02255351,2.4344382,3.1394165
-0.9234812,3.2697816,3.3580835
0.7567457,3.8859782,2.6453786
0.020360176,2.1716423,3.0450485
-0.35422617,2.3694668,2.672056
0.10849311,3.124974,3.5512009
-0.16319601,3.373134,2.291955
-1.4614193,2.8059578,2.6614094
-0.00856676,3.5859454,3.515132
0.4420525,3.640576,3.258656
-0.1545225,3.1749837,2.642384
-0.15708454,2.879891,3.095048
0.21648102,3.322423,2.6881006
-0.1820506,3.3521488,3.1245668
0.40475407,3.505188,3.616891
0.7944508,3.3126957,3.2202783
0.11438514,3.5203302,3.3256893
-0.93806624,2.6671052,2.7727892
-0.7421858,3.0370367,3.0623572
-0.040444884,3.151259,2.5666404
-0.22387981,2.763112,3.4835157
0.35463417,2.786427,2.9134765
-0.6217946,2.6671512,2.6656005
-0.24807587,3.308209,2.5107117
-0.534287,2.052905,2.702942
-0.21403354,2.8891711,3.7087064
0.19463839,3.3737144,2.8721485
-0.3552232,3.1853633,2.9933393
-0.19566792,2.670504,3.4756103
-0.22132675,3.0713642,4.169035
0.7337074,3.4027433,2.541486
0.15624444,3.233728,3.1974366
0.18739612,2.4592736,2.8470917
0.35817468,3.0456827,3.237134
0.38245073,2.930018,2.990797
-0.069807805,2.4049938,2.5884418
-0.1638222,3.8871093,2.9157422
-0.38076702,3.0367851,2.9957492
-0.07066335,2.6732557,2.2647932
-0.2201669,3.2917204,2.8789248
-0.022520624,4.5796986,2.7792873
0.2131695,2.064815,3.3205502
-0.5277611,2.9845083,3.442012
0.20279758,2.61661,2.4844291
0.6927402,2.7313662,3.0794637
-0.22593385,2.8866265,2.9861314
-0.23947829,2.6808832,2.9579117
-0.6355023,2.8641818,2.4249592
0.3061439,2.3794713,2.6988328
0.4625794,2.156326,3.1663952
